ply
format ascii 1.0
element vertex 886
property double x
property double y
property double z
end_header
1.082604952877018 0.098039620244430 0.531469229999111
1.084352050605176 0.098773596234353 0.531606310786361
1.079845723753701 0.099185556254380 0.531950521398824
1.081603065827491 0.099804180905674 0.531897913135034
1.083377531417034 0.099987364487338 0.531805822539617
1.080255445654503 0.101895751925027 0.531901707636822
1.082201462856628 0.101679430540949 0.531667465780885
1.084020383334155 0.101875561454810 0.531549997338207
1.080461615283745 0.104569873948392 0.531978147095584
1.082174609753905 0.103873098621163 0.531853536060013
1.084094957159923 0.103654054695699 0.531640735514782
1.090202213985556 0.104657039329796 0.531959024938955
1.084803458511393 0.105742168143867 0.531611320625174
1.087466574037085 0.105770558550592 0.531719965169394
1.089470185043745 0.106010712712120 0.531506514964499
1.090774543113616 0.106107030262540 0.531718633540607
1.087322153070252 0.107512742124712 0.531944345415947
1.089500956977329 0.107794492578481 0.531625585102389
1.090556047812812 0.107396503685908 0.531953218857534
1.109570579551055 0.112412363516154 0.531606874641527
1.124292089646793 0.112073597977896 0.530515286091069
1.156532572662538 0.112726927231143 0.531191480372655
1.198084101215132 0.112846304792206 0.530959737093211
1.104768774348429 0.113630970554528 0.531676396021933
1.106741952189476 0.113239159634113 0.531955795418445
1.109164852744987 0.114230756694049 0.530579709122419
1.111152472572248 0.114477388048623 0.530337989418956
1.113840836279104 0.114037549813207 0.531645587798250
1.116964892013139 0.114334751576141 0.531880071553894
1.124352453986000 0.113945544419371 0.530627576936131
1.137609115856567 0.114892175305495 0.530170680897640
1.138386714209515 0.114630807525650 0.530646539384601
1.154990578097579 0.113782615602058 0.530703367404546
1.156711800668464 0.113649049267340 0.531405085022367
1.159408875290287 0.114305079999560 0.530151097952663
1.160522771901915 0.113813429426097 0.530660884133079
1.166381798370045 0.114641110044020 0.530116982827295
1.193761894181556 0.114666616646494 0.530506444021888
1.195063029956662 0.113890251429136 0.531266820574196
1.197356957000007 0.113600746180189 0.530568710844393
1.198270207455605 0.113803815112802 0.531181539250191
1.108938716695195 0.115236190612430 0.530579514416221
1.110534476849670 0.116030764318438 0.530341362683687
1.115202816778069 0.115612911926345 0.531478555821749
1.116888693583817 0.116495847927837 0.531068791151332
1.118784880655284 0.114997678755986 0.531892615200618
1.120011420854303 0.116180650019618 0.531269783113080
1.122255106556414 0.116474067221511 0.531014119296571
1.124532755987183 0.115843094444643 0.530672372327228
1.126484482655954 0.115603926927394 0.530556032932310
1.137785556207963 0.115799954953301 0.530380963209606
1.138421582010859 0.116230896198609 0.530838390408890
1.148627800895732 0.116259877578664 0.531769054230141
1.150524469106766 0.116243743522723 0.530902433522251
1.152390899304730 0.115339903643536 0.531297748918032
1.154275937820407 0.115095941674161 0.531176910664276
1.156784257867548 0.116087655153174 0.530035550726865
1.158947986005384 0.115680670490981 0.530317127279535
1.160396096330110 0.115336280821394 0.530739962045116
1.167253823101739 0.115725792116868 0.530616979357356
1.169130760991915 0.116142035230655 0.531696960614767
1.172848238640437 0.115603029242889 0.530578605148283
1.197413165986700 0.116351521456359 0.530178498210325
1.116649197102360 0.118226033607329 0.530832065291450
1.119481903257236 0.118008402079251 0.531208724473174
1.119981785792283 0.117099122962771 0.531359218750951
1.137246402916046 0.116983517039150 0.530037458822183
1.139850566591017 0.117571358212421 0.530111456434667
1.141011417433887 0.117540172401842 0.530740226336458
1.142637930746853 0.117758255053120 0.531417819019184
1.144819671631318 0.118033994267092 0.531105538302889
1.147071692178344 0.118322806108834 0.530720545578171
1.149099298084946 0.118338622787784 0.531337449333974
1.150965147475646 0.118320617319838 0.530510476061203
1.155915761787620 0.117221249106606 0.530071516360620
1.168410259241471 0.117543285427732 0.531378661434741
1.171460129958760 0.118882435636052 0.530624720437584
1.172591945519562 0.118684099501096 0.530738597517604
1.119071855520045 0.118936890924990 0.531007497043374
1.144689009378540 0.119975331963158 0.530413010964744
1.146904555426531 0.119817982943713 0.530850231324076
1.148794582523938 0.119585649310034 0.531252129973743
1.151183209699267 0.120349337182276 0.530387884503205
1.170658093945055 0.119152017447103 0.530133907098638
1.143621917770791 0.121048098672890 0.530050822567552
1.147124114128846 0.121847054794747 0.530170502026124
1.149121117183467 0.121641343709332 0.530445148757241
1.151178370735535 0.122329168517824 0.530534396565921
1.152762535508284 0.122253088170823 0.530057094064022
1.145818397713703 0.123742682616282 0.530083710283214
1.146918315386312 0.123555898458898 0.530178155004430
1.148602520391529 0.123282475884030 0.530282963721571
1.149972284885745 0.122931821447132 0.530774007714114
1.099711037054252 0.040695143905499 0.532245658088568
1.100715622268424 0.040680585335529 0.532643664768689
1.207354984203564 0.040662018589422 0.532794881486427
1.208171308904160 0.040387634038813 0.533294438919157
1.211719412350215 0.039868927192694 0.532307762686334
1.097047877167629 0.042141686425355 0.532948969211226
1.098661379876320 0.041467546313261 0.533425227888766
1.100794762982319 0.041489598510477 0.533653290871964
1.102609163940186 0.041530613231370 0.533580918600269
1.105345807029305 0.041551159301962 0.533966101766986
1.166587599944466 0.042165688206831 0.532151244635558
1.168151277795780 0.042835470205094 0.532158189309372
1.213480528947632 0.041518770374857 0.532665835451379
1.214630417006681 0.042204243193626 0.533243719852184
1.093350584882494 0.044901426004761 0.533392457469164
1.094471393445917 0.043624543893331 0.533116032443579
1.164965038186242 0.043323351284925 0.533056978265216
1.168321027029126 0.043470074661753 0.533770467138692
1.173076649698415 0.043798300543629 0.532220050556052
1.205391460262225 0.044342289876341 0.532032403687631
1.206207651423691 0.044067950211148 0.532531879399859
1.214816765651895 0.043163000678430 0.533465810908099
1.091213093002164 0.046664735441026 0.532835087335751
1.092533111228741 0.045584001281240 0.532946022893138
1.129322908656347 0.046099683947704 0.532597540106039
1.130657864089418 0.045581580471039 0.533765943851763
1.132797838580633 0.045232399352896 0.533201038582509
1.133935929540471 0.044988653771438 0.533194572944774
1.136402886285067 0.046121191896277 0.532160929672308
1.157271902052109 0.045102450158277 0.532290358460703
1.090690293113843 0.047866876384534 0.533046540973068
1.089476186813709 0.050160233652551 0.532672065086544
1.090372979719761 0.049545246430611 0.533237084291679
1.089478990872038 0.051911754543150 0.532806613648151
1.090214416595898 0.051834554650642 0.533841211010277
1.089128508830613 0.054185025895037 0.532898713909626
1.089444593769712 0.055968196909877 0.532845441865898
1.090486892256471 0.055363364587345 0.533951526569188
1.089199086075820 0.057801991526242 0.533080533474286
1.087763575304046 0.060755799328641 0.532056112318727
1.089085168168451 0.059931151036376 0.533049558690001
1.087912116039313 0.061649068374063 0.532034518958218
1.089092247347498 0.062094698787916 0.533053786974514
1.088892454580749 0.063748843270494 0.532877997602986
1.089921321447192 0.064177180934800 0.533988838277308
1.087845391156414 0.066465537609468 0.532449231769379
1.088710172306664 0.065857713457888 0.533152936928996
1.087877318253212 0.068224507789181 0.532566222823602
1.088703056236510 0.068150803761752 0.533548528845756
1.087413145286432 0.069980201648853 0.532488738929902
1.088283083060360 0.069911779084105 0.533444443595690
1.087356750322757 0.071728038323882 0.532658933260711
1.088138278952973 0.071647517195376 0.533667634983952
1.087156774041032 0.074083394170443 0.532632082927650
1.088195283574751 0.073880669959302 0.533557539791883
1.086955117496326 0.076125017484862 0.532748126205979
1.088188229482387 0.075603698774716 0.533944515008309
1.087221896476955 0.077920508705886 0.532723476806434
1.088308605758060 0.077377190727991 0.534008857210581
1.087080655329663 0.079724033211126 0.532450941835543
1.088258079623223 0.079508530463572 0.533541279549851
1.087130161085440 0.081998977438472 0.532096723748365
1.088703952921532 0.081841214351766 0.533241882894419
1.088947746586975 0.084040440722977 0.532995671301483
1.089253868109319 0.086022457919776 0.533104794303214
1.087826171271561 0.087839203498240 0.532120292653164
1.089285463829486 0.087792309050813 0.533222863590062
1.088832315244767 0.089701300672454 0.532898496028291
1.089944880617323 0.089963789014746 0.533988439740309
1.087494524735380 0.091507976136625 0.532275042778964
1.089073376996235 0.092122538731139 0.533021855268284
1.090389676610970 0.092691186826385 0.533928967249556
1.085366157518550 0.094321243564116 0.532137715117726
1.087285449523861 0.093996656492000 0.532429729160119
1.089030935118938 0.094003548519373 0.533360832222972
1.090361317074640 0.093570127683080 0.534014553479129
1.084683071264878 0.096034437657829 0.532193158290376
1.087162913788303 0.095739431807280 0.532640342622448
1.088930237088114 0.095752052566143 0.533558291358993
1.085078535021550 0.097550298104888 0.532231814124417
1.086980790874803 0.097964733988912 0.532590714160573
1.089003364594631 0.097813909247780 0.533573139677171
1.079817636050714 0.100056072240192 0.532035287262694
1.084687427904250 0.099998316701777 0.532496977445325
1.086173829025034 0.100043187048599 0.533083084811937
1.088546286886700 0.099789041607852 0.533271973145422
1.090621303385325 0.100333933138771 0.533880846665995
1.084660835051551 0.101837488537794 0.532153210640547
1.086630308460424 0.101979611912558 0.532448748072222
1.089350223889628 0.102065575417665 0.532618692075627
1.090859352826528 0.102234863716825 0.533380792629395
1.080141099014347 0.103626893754778 0.532107066566601
1.084735586550257 0.103615971216564 0.532244116159447
1.086719797192205 0.103645171263880 0.532354541191085
1.089137551068791 0.103851250946846 0.532553024826185
1.091052422966460 0.104131771966636 0.532906761011447
1.093167869062767 0.104748292665135 0.533170809730931
1.080825604215796 0.105877025664958 0.532352582516958
1.085219550721118 0.106362613760802 0.532155052396522
1.091420798813655 0.106068612316315 0.532327313358910
1.093271887588201 0.106105268859668 0.533212465316193
1.097043639954032 0.106360012722716 0.533964155024756
1.099836161766846 0.106304963568028 0.533284818284942
1.079899338886388 0.108400544530922 0.532627082726000
1.080996543535515 0.107494368728536 0.532537268912111
1.082249762784394 0.107675093193786 0.533104018324134
1.085031698254987 0.108089444428582 0.532405474226918
1.086753896405555 0.108721653991462 0.532390480627851
1.090909111750258 0.107947758130509 0.532451331531935
1.092950128668207 0.107786680494023 0.532868309345125
1.094347794336355 0.108143388629165 0.533387002377937
1.097429143694640 0.108227858758531 0.533876843156524
1.099807373570242 0.107197189798042 0.533371698168123
1.101374949655594 0.108416044498755 0.532523312426631
1.080708802374120 0.109832925189226 0.532563425594031
1.082630978897917 0.110000116882391 0.532794184023332
1.085193795345063 0.109891004050060 0.532443778216850
1.086974149129715 0.110096880699186 0.532360183185799
1.089269676432633 0.109879774774886 0.532434607575650
1.090412848967651 0.109859623250707 0.533240456711437
1.092437419523015 0.109668191378172 0.532991659837502
1.094973284962081 0.109798123600583 0.533269457566340
1.097386110385318 0.109561580626239 0.534006713357786
1.101420305279660 0.109777147347237 0.532602122673543
1.110847367174733 0.109674304558936 0.533576614039811
1.114483543170832 0.110151407218778 0.533004738643137
1.117097393320981 0.110419004586717 0.533027984502477
1.119687410032550 0.110219571128979 0.533038060641391
1.080222469899687 0.111981654108992 0.532699863822640
1.082537332737719 0.111978529720936 0.532653853584530
1.084889770180981 0.112033163333867 0.532798632438352
1.086129067039996 0.111683911102666 0.533007346563523
1.088913285965452 0.112022517166147 0.532820601602204
1.090531810487247 0.111662306384232 0.533307192394941
1.092512422930458 0.111466346785390 0.533085322828112
1.094895031156281 0.111711041874558 0.533163055174071
1.097594375276566 0.111396279853511 0.534023850652534
1.097919839993416 0.112361766420765 0.533902510589086
1.105049604916721 0.111366664288346 0.533791472362392
1.108018487259597 0.112894906214863 0.532446950023851
1.110428211189458 0.111041719787520 0.533422925316676
1.112339615518350 0.112261156717388 0.532901067258418
1.115694266231187 0.111773299423541 0.532423074703627
1.116865181799234 0.112384439642649 0.532297421813332
1.118450312459320 0.112445579950234 0.532910108584483
1.145303575530330 0.112690059429677 0.533604391726806
1.187523375243178 0.112034769326524 0.533484209058725
1.188241166740459 0.111290031759716 0.533870205826322
1.080427508311935 0.113784446502677 0.532709853313271
1.082693484363144 0.114021550656625 0.532814362933104
1.084877330004709 0.114238825372758 0.532976841429466
1.087022069644476 0.114003107168915 0.533136527619495
1.088322387473904 0.113577358595923 0.533808848552312
1.094980081009217 0.113338344209133 0.533405954582575
1.097891114527584 0.113252048449805 0.533989201157105
1.114506754450955 0.113997962992519 0.532272786833899
1.117752407720988 0.113399575148295 0.532369592211297
1.118406063741297 0.113816970711801 0.533043646767012
1.137792728593998 0.114062139106099 0.532833013935932
1.138655275955268 0.114253933778532 0.533411818491782
1.145568736017203 0.114054301177565 0.533920411048807
1.146792012728948 0.113889340454113 0.533857837059725
1.149329673649175 0.113718179921496 0.532612455317965
1.150433187303139 0.113671951718348 0.533322109325852
1.187798943983650 0.113452561187588 0.533812632978727
1.091077360141425 0.115340323541970 0.533257339347221
1.094133074332334 0.115656141541526 0.533429318198274
1.119454707631773 0.114957859568687 0.532523495767427
1.138343904988622 0.115482595582929 0.533340180547725
1.141750451969564 0.116684812142660 0.532085093801001
1.143075876428886 0.116327862737415 0.532606562036118
1.144981146043170 0.115882280343009 0.533135306873132
1.146830913775800 0.116295522803898 0.532522945617141
1.170423719256120 0.115981035177864 0.532158334775551
1.145588940824707 0.117110373049413 0.532103955067721
1.169699134926174 0.117606812104365 0.532219951594210
1.170695742827244 0.117380587262388 0.532482533548636
1.209634320613661 0.040785507726031 0.534881867213402
1.098581561156752 0.042220026989758 0.535015289393128
1.103256367229228 0.041492138953845 0.534190490910975
1.106680961446638 0.041517596216887 0.534675539838979
1.108017063452974 0.041483976800513 0.535385870403375
1.205140749256258 0.041567273006318 0.535523369883038
1.205952533626441 0.041294414559868 0.536020148818678
1.209213933290577 0.041603087723523 0.534696150884262
1.093544351046115 0.044829413315666 0.534259649731985
1.094844998723008 0.043920095199657 0.534893463632898
1.161053886572376 0.044549463464605 0.535936583366059
1.166537913597381 0.043707491707483 0.534435020408187
1.169517722703280 0.044757190653198 0.535997137812473
1.172767296886003 0.044276452350307 0.535060379887979
1.204767858980000 0.043737269902784 0.535391878739772
1.091695743922317 0.046480765962194 0.535000888601411
1.093121183662975 0.045629697803925 0.535068208618135
1.152705892331998 0.046426462377596 0.535334365963397
1.159456791364727 0.044929447295085 0.535720049478332
1.168731844924283 0.045021341328861 0.535516212654348
1.091147028094484 0.047862002285169 0.535141418200508
1.090604050585317 0.049977392267518 0.534942831724542
1.090763852904076 0.052178041490819 0.535018503500524
1.090307013201079 0.053933054420043 0.534936354520785
1.081502075032256 0.055812026810564 0.535550806058046
1.090862147699717 0.055804822715078 0.534945975958570
1.090615510943656 0.057901685136837 0.535060235624272
1.090596270288050 0.060022679203437 0.535039577338035
1.090572451513265 0.061892622358892 0.534903189944644
1.090593703455652 0.063900200896298 0.535145734929409
1.089657975071158 0.065900249842146 0.534282505719184
1.090131751041012 0.065971584374553 0.535387745080643
1.089677337626242 0.068202639449650 0.534780266834686
1.090144933810310 0.067539381093483 0.535600954292217
1.089117098280286 0.069778662422735 0.534911708550897
1.088779822860683 0.071835474681019 0.534993255503647
1.088878861891912 0.074192852623546 0.534904350717311
1.088583720719772 0.076032175915308 0.534928818455526
1.088828364667087 0.077822657292286 0.534919441224006
1.089159506487495 0.079968452823770 0.534970409061146
1.089629885564245 0.082085153187273 0.534896619639013
1.090392158368220 0.082698296255726 0.535144910649294
1.089709308490564 0.084050406005595 0.534669650732199
1.090349760207960 0.084012333088579 0.535272864034538
1.089741229402874 0.085816895881255 0.534787598505776
1.090381799568895 0.085778815922826 0.535390923369666
1.089773134632491 0.087583871807158 0.534905593608143
1.090488239858074 0.087998878875702 0.535499199088521
1.089916552446378 0.090841757770955 0.534073931312301
1.090360076798728 0.090004399565443 0.535135683952322
1.089888224275433 0.091719726527164 0.534159422884293
1.090748382348381 0.092086308464473 0.535161526697825
1.091062285897076 0.094042182284165 0.534823619134969
1.090918249032192 0.095726604513837 0.534842471699290
1.090972841769889 0.097866451794402 0.534690115352245
1.092387520750514 0.098416811247318 0.535658618220259
1.092687523090720 0.100325844000858 0.535126098666573
1.091401310429430 0.102619997870949 0.534083150841519
1.092382070187376 0.102121854391553 0.534950581655005
1.094845684699619 0.102273805646889 0.535474194540721
1.096680516424478 0.102384487429231 0.535880222159046
1.091372872479634 0.103501368978861 0.534168973715045
1.092339413262684 0.103443911053422 0.535079315965294
1.094625081214582 0.103943964358778 0.535236182318352
1.096374943840307 0.104272651229502 0.535208601452362
1.094448113470836 0.106004444942306 0.534500994799660
1.097913493044038 0.105024217868068 0.534342082065309
1.099540184407043 0.105422676386623 0.534737353489154
1.101317634814121 0.105645262568941 0.535368658201366
1.102459742184879 0.105703742219985 0.535698856172822
1.095187041941444 0.107938242926050 0.534203741110855
1.103308219156162 0.107221640002530 0.535313888683262
1.103961700222349 0.107182792530146 0.535929373756132
1.106879071623539 0.108674295957536 0.534320165412510
1.109418092544601 0.107765429559004 0.535783612050693
1.110808801549027 0.107418941972740 0.535951791069469
1.095734597885682 0.110284264058068 0.534054528656536
1.097357421512436 0.110450728538045 0.534093293491960
1.106207479300068 0.110789701547194 0.534041637755559
1.188842093580234 0.110766260815087 0.535280327269825
1.095794395613053 0.111190437961614 0.534088816032395
1.095942606754776 0.112115906091369 0.534071031517627
1.101751379972928 0.111447618989335 0.534215893231021
1.102362174458553 0.111861464677771 0.534655174168407
1.104233701427917 0.112014632151740 0.534208792466851
1.106377677729363 0.111665366716648 0.534244480919960
1.111089509864919 0.111002407581916 0.534045773451865
1.140136823974063 0.112855153872604 0.535658397203252
1.188978778456985 0.112192603735991 0.535304441959565
1.088016368973039 0.114838267631396 0.534095164320596
1.095274097924982 0.114026043781100 0.534373256940401
1.097361127220282 0.114480581893244 0.534404939937736
1.140312234105306 0.113757633072526 0.535867451694745
1.188608591727755 0.113180420907801 0.534308104386325
1.094708375697585 0.115510010649025 0.534580033636011
1.096919724051600 0.115726782354001 0.534768560626656
1.139693597054894 0.115350078397201 0.534200110887528
1.139965809991673 0.114976535330930 0.535293674638722
1.094538238831069 0.042853162287449 0.536958398616536
1.099542845989528 0.042079650303148 0.536902518834102
1.100190066251939 0.042000527215636 0.537991609185259
1.207112803540284 0.042770883418260 0.537645253427514
1.210606628109318 0.042411158693877 0.536042237999190
1.093236140926702 0.044110681256041 0.537337191439887
1.163043653591263 0.044037494067127 0.536393416391843
1.165313982508657 0.044439647909468 0.536949219931220
1.170571517305714 0.044500829606950 0.536173958770068
1.201605903705945 0.044887406695139 0.537771812247903
1.210791613227860 0.043362900880011 0.536262703998598
1.092594746557539 0.046068792604028 0.536563404243799
1.152565566541709 0.045991060538098 0.537589486950289
1.154703293132694 0.045634450269050 0.537141942475594
1.157109094759763 0.045284247808960 0.536390250062942
1.166081766668129 0.045227194223637 0.537170881422153
1.200798793205306 0.045158694152014 0.537277893529855
1.091579599148570 0.047854818913982 0.537240754446836
1.090925954409231 0.049818880223018 0.536705374632275
1.091329523689044 0.052095839718957 0.536936862757625
1.090888937453010 0.053742098317330 0.537033949614301
1.081215556449298 0.056622434743226 0.536407831598177
1.091451437756509 0.055990264975662 0.536775610236381
1.091987317313865 0.055624415402675 0.537671504073737
1.081405215911989 0.057883793317539 0.536783680940257
1.091418085507430 0.058162027323343 0.537063495454841
1.081481930870771 0.059135190325338 0.537324547455218
1.091265951943369 0.060013614128120 0.537003734278282
1.090972026508620 0.061664122727948 0.537111359826789
1.090672428890558 0.063871699222922 0.536971005306363
1.090171511276376 0.065998015079533 0.537436944471101
1.090286542244091 0.067883203210352 0.537219686429040
1.089304853414887 0.069939824510328 0.537280239360317
1.089012783365076 0.072209561515814 0.536647202574897
1.089156397500887 0.073979279591956 0.536698503427852
1.088944723315547 0.075700499471905 0.536960210928589
1.089422023181610 0.077958589441571 0.536848442758169
1.089536568808507 0.080167172118543 0.536951404031682
1.089649681635971 0.081499726669441 0.536987027543435
1.090154131080161 0.082455242466092 0.536757376515561
1.090267246489283 0.083790465012269 0.536793344006825
1.090368363770264 0.085813830456751 0.536989100750262
1.090616477316293 0.087993640957805 0.536811275958650
1.090890561442296 0.090049527329620 0.536905371660697
1.091233257645483 0.091870774111366 0.536840693982409
1.091811827832640 0.093294965765904 0.536602925707549
1.092133525314279 0.094158692874901 0.536972769181484
1.092599774117378 0.095862056840702 0.536825660709784
1.093057743846678 0.097680551888569 0.536443076718546
1.094228430740062 0.098285492730353 0.537528176511673
1.094901402724890 0.100264862589011 0.536781752498909
1.097206084796502 0.102240599922532 0.537053248617501
1.098175823692437 0.102182951878957 0.537966603029607
1.097163286727574 0.103567031036591 0.537182408886905
1.103438187054778 0.105645576632596 0.536620410358873
1.104818001086709 0.105461105676381 0.537629908076774
1.104615181288535 0.107143945057762 0.536544858829002
1.106253396352166 0.107302379500046 0.536597209387267
1.111467849700607 0.107379763553972 0.536572519535202
1.237474965022177 0.108336957336761 0.537450616365247
1.138171604430182 0.112852158010008 0.536658009382140
1.141296411007865 0.112465391359074 0.536368017188057
1.137488500861105 0.113560905455247 0.536290666260082
1.138346438850163 0.113751675194937 0.536866377738664
1.141172997193462 0.113949030996801 0.536445058930363
1.142033760281618 0.114140428921076 0.537022666165980
1.094734688352805 0.042700179596844 0.538787184423931
1.101016608034097 0.041933971321125 0.538975593414704
1.203116067401242 0.042321648091956 0.538717442542914
1.092664101782458 0.043940382572049 0.539126543162805
1.162351582441330 0.044779423728654 0.538296220271990
1.201425597171029 0.044589287669512 0.539297954479927
1.203299143582444 0.043263568859953 0.538935633463212
1.207702310607561 0.043581342380586 0.538112708137496
1.091342395651666 0.045708155975364 0.538582625275196
1.154794516419084 0.046104793561945 0.539523212131504
1.157061713422156 0.045609978663568 0.539623290465948
1.159475034795238 0.045260404176818 0.538876533654404
1.160250496522109 0.044999754563636 0.539351084613322
1.166865048100868 0.045583665928795 0.539430080438207
1.169253505881961 0.045084581948385 0.539448755925321
1.172690160345998 0.046435820179177 0.539125946417529
1.174776845070141 0.046836200874947 0.539921456371437
1.176139552966891 0.046591726666978 0.539761351368287
1.090480720167043 0.047811983084541 0.539257107390185
1.090773028692976 0.050055304173505 0.538771615455907
1.091252964645212 0.051677760768799 0.538777173411978
1.091310324251720 0.053585979608927 0.538729686121248
1.091989090486164 0.054909043020207 0.538920323313887
1.079848607515728 0.056219869416439 0.539905405069521
1.080250224109898 0.055423183375329 0.538885154595441
1.091838834665980 0.056688987139980 0.538659291917205
1.092009637114532 0.055732771334739 0.539460738282756
1.091810775714597 0.057558612033678 0.538743971011626
1.092006501904968 0.058451648755559 0.538697905264874
1.081162946158160 0.060349695208499 0.538442504614490
1.091900798575384 0.060239683225801 0.538410966952252
1.092045292961590 0.059602154435416 0.538928173933026
1.081408380959174 0.061612448968971 0.538735014785694
1.081967946235983 0.062492424098132 0.538353219821120
1.091642990087353 0.062230937932873 0.538882709959982
1.092150952322693 0.061032973842814 0.539303976957987
1.081704221751620 0.063705673943511 0.539387223899279
1.091536785678075 0.064239033857131 0.538743488088494
1.091977221873738 0.063632243584080 0.539610243888704
1.082176181872902 0.064991624643057 0.539350458084426
1.090908501904075 0.065857839784332 0.538949671568296
1.090896546776330 0.067875948337225 0.539016623910905
1.089423307621885 0.069963412502292 0.538930627341819
1.089973586992175 0.069726888210926 0.539318956023959
1.089208696874659 0.071928565665951 0.538966879136470
1.089500464332118 0.073882446302189 0.539085150224767
1.089229686683538 0.075760419447306 0.538664862820172
1.089966480946490 0.076772341952817 0.539383169499196
1.089288793274987 0.078114685025032 0.538911560694247
1.089321688935294 0.079867452799148 0.539028677400533
1.089520113295845 0.081523348954461 0.538875095741398
1.090452644428648 0.082529062342981 0.539543024741942
1.089752713921867 0.084377390809090 0.538630362630133
1.090474155825468 0.083730175497739 0.538886279318502
1.090796241218550 0.086098602860092 0.538927471503619
1.090848520038129 0.087992627490941 0.538748704669063
1.090881141251310 0.089753901144315 0.538866649629184
1.090989744837574 0.091407862326095 0.538766025767051
1.092058384779815 0.092444923908744 0.539359467421348
1.091707676938399 0.093049245966942 0.538134430489591
1.092431244825386 0.094174984139679 0.538942457233177
1.093414528856501 0.096211173102690 0.538844155375139
1.094199849990313 0.098137778492095 0.539351709052474
1.095145944171151 0.099909842548574 0.539091961420186
1.099145562588371 0.102125303835382 0.538879957441713
1.099017809640130 0.103517508914340 0.538567576326019
1.103850478060483 0.104694215146591 0.539798315518454
1.105233824303677 0.106030278424664 0.538097577420891
1.239193555793350 0.107777593683304 0.538444457840302
1.094429444921500 0.042512256535777 0.540896837084190
1.100894029650300 0.041761246545184 0.540983651322821
1.092010740576234 0.043289365593695 0.541400338534526
1.184571053714578 0.044536587164145 0.541295812294949
1.186833700057708 0.044023123868932 0.541530507174943
1.200322928284490 0.044268093917832 0.541779239434321
1.089525365031872 0.046344768967563 0.540678064857792
1.090446159979038 0.045702211943976 0.540812260446287
1.138717983082376 0.046143421973062 0.541615898891857
1.152134365068317 0.046440154991005 0.540587047711962
1.159477814525426 0.045587922574508 0.542022641055126
1.161844485419083 0.045379486758622 0.540662596909542
1.163594881677172 0.046050755954161 0.540431795525534
1.176926231980667 0.046327306678816 0.540242766849429
1.178686352327765 0.045949253471566 0.540325862062180
1.180501672742786 0.045427021809919 0.541027459038901
1.089604263574880 0.048082659473864 0.540767711676152
1.090235476299497 0.048045135787017 0.541362223177570
1.138889863194567 0.047027739344208 0.541820746292617
1.173450224620972 0.047081107754733 0.540045173263805
1.089831681362252 0.049400701439558 0.540736897035367
1.090473574246464 0.049972635636562 0.541050265968403
1.090975552054685 0.051623379593575 0.540722614246725
1.091429992313739 0.053820413321292 0.540789056757613
1.092272032556163 0.054737791251009 0.540690404980174
1.091761262537194 0.056528427987973 0.540157690064073
1.092322135963995 0.055997728577764 0.541245478305808
1.079662016935835 0.058266006530045 0.541256869338280
1.080011533802771 0.057058119659657 0.540099581265887
1.091733263702800 0.057396189689071 0.540242187731464
1.092333666893265 0.057856981587037 0.541092815273083
1.079707831588712 0.059503767819539 0.541836085978108
1.092657978922856 0.059880028595314 0.540988044229607
1.092343759162491 0.061949532202272 0.540629174087439
1.092378711256912 0.063947891305147 0.540862773637533
1.081571108927611 0.066162050460237 0.540876516354780
1.091262363669250 0.065924449246942 0.541025268382992
1.091936172004979 0.065147043262249 0.541703998358535
1.090649679121436 0.068007040174903 0.540737833907896
1.089727067442803 0.069951419704532 0.540948592251310
1.089426477244886 0.071900754385406 0.541376657455206
1.089307027162292 0.073872930800106 0.541017146613662
1.089625768839231 0.075992134124029 0.540667810458468
1.089399701736210 0.077869873927231 0.540785860541321
1.089541661383774 0.079882923207046 0.540956755889331
1.089698383017268 0.081034016064513 0.540366589996492
1.090203326250678 0.082185761058533 0.540808800777498
1.090185330763455 0.084098739876728 0.540805781761575
1.090825386129567 0.086072980915669 0.540742965433433
1.090699204771943 0.087928056135460 0.540897557437996
1.090789979461737 0.090073611851878 0.540815236891935
1.091351777119029 0.092000536327298 0.540893640174505
1.091547336941517 0.093446087694876 0.541218199196452
1.092500722649311 0.094494027885240 0.540734192757882
1.092458065300106 0.095899269520062 0.541196712020031
1.093002901090034 0.097145334311275 0.541134924259541
1.095222784724432 0.098281103861787 0.540895246540610
1.095493151893393 0.099656004979385 0.540843245748815
1.097249867995207 0.101517075179000 0.541433793132800
1.098729449087558 0.103132356866787 0.540691092756816
1.094342121768136 0.042340817181983 0.542869289551578
1.089672470486571 0.044412204135687 0.542855389622239
1.091694691353769 0.043099255049486 0.543499451447548
1.182610015900174 0.044768611456464 0.542083790458447
1.201124563680806 0.043998646763030 0.542269807611760
1.202493642322269 0.043743454683235 0.542172495073276
1.089324307378102 0.046109887256390 0.543192223500902
1.148767221137743 0.046745912555636 0.542505586450747
1.156336493915717 0.045909971586222 0.543610718718343
1.163265348443514 0.046507789364530 0.543256823563036
1.164425536403400 0.046117824866626 0.543966811290103
1.166206595235943 0.045891063229531 0.543302054868040
1.181065735682911 0.045011303831388 0.542425141391235
1.195007024087800 0.045917139117426 0.543774050944019
1.089260191939832 0.047397974950637 0.543330857152539
1.089952714718693 0.048318319523779 0.542998298588573
1.142489534477846 0.047787022060439 0.543813313338966
1.144832131710172 0.047594839252533 0.542379599341449
1.147231379876573 0.047116375326370 0.542267907196693
1.090028642490327 0.049870173189440 0.543172100102762
1.104778443796502 0.049144928128889 0.543937237179149
1.090807984533680 0.052034017061346 0.542693388702502
1.079703726871254 0.054797255170536 0.542651150827861
1.091096907568542 0.053882180234187 0.542927318898988
1.078957472454811 0.055485341655639 0.543038079230188
1.091788236355083 0.055693885275760 0.543954114336667
1.091967576775171 0.055811760285892 0.542893095840037
1.092280859475714 0.057987656417410 0.543122863963564
1.079587153209069 0.060314376558560 0.542441710369191
1.092368212192268 0.060193609945913 0.543003479682020
1.079830679072742 0.061567308900895 0.542731945461285
1.080074204936415 0.062820241243231 0.543022180553380
1.091862291907081 0.061874606790553 0.543430745196261
1.092308732240703 0.062033032240138 0.542213058032739
1.080147368016164 0.064055559772576 0.543559046220684
1.091761483111756 0.063599063656685 0.543625020901457
1.092387622813868 0.063782161786172 0.542304135986064
1.091478247243453 0.066094785572409 0.542775406768603
1.080875900727301 0.067725434571383 0.542744588392226
1.090813045541361 0.068118357959701 0.542790620961093
1.089624708891123 0.069759272449840 0.542454034776451
1.090232640622027 0.069534580512235 0.543371781802630
1.089300204724927 0.072011773069558 0.543209798855279
1.090035574871293 0.070995323356580 0.543279338513703
1.088770048707314 0.073922568347260 0.543089520742708
1.089249787854934 0.075786893879226 0.543146626408993
1.089326037031504 0.077599386234161 0.542758602125823
1.090053591986980 0.078814266202629 0.543881881131140
1.089446761966554 0.079857221621967 0.542377489292218
1.090070595736152 0.079939074121248 0.543377272759749
1.089867784042690 0.081662549290334 0.542269735518794
1.090575358243376 0.082132232573952 0.543057071755786
1.090461196923176 0.083796979968699 0.543060225391859
1.091035474650873 0.085799611765240 0.543017725296597
1.090734243900380 0.087836208669196 0.542728635206025
1.091000803372683 0.090108140947213 0.543041740783021
1.091356189791272 0.091917003756382 0.542973678041534
1.091523585531362 0.093532785100837 0.542545456143165
1.092224287492287 0.094330800762682 0.543497551795255
1.091681740555392 0.095070989003597 0.542246249590350
1.092765380307247 0.095913851126364 0.543140670003758
1.093335712057421 0.096972941764847 0.542398259733502
1.094066006101989 0.098269460876882 0.543049884630917
1.094284041688522 0.099988385005871 0.543546183924753
1.096570646238883 0.102026440218637 0.543346869181156
1.228698601955591 0.106120977568768 0.543373964008151
1.093655667789990 0.042087240709095 0.545647245917633
1.094203835474566 0.042207733522909 0.544382802417894
1.089576282047027 0.044235227821902 0.544818716021149
1.090246000788604 0.044158876183738 0.545860279058109
1.092275737421884 0.042975185598171 0.545073907085031
1.200492524589082 0.044331234883406 0.545962213229741
1.089250061258826 0.045929901331833 0.545141376312949
1.150366360813056 0.046693634614834 0.545807970338599
1.153536746291796 0.046239513363884 0.544822752156030
1.158164810063708 0.046152055303319 0.545298604745927
1.160105984793969 0.046825938222780 0.544832805443171
1.191730037424292 0.045478036301791 0.544177140759216
1.195802783762403 0.045649666920947 0.544261023419341
1.196678301948415 0.045239334647922 0.545322738013904
1.089298832646425 0.047223612286783 0.545214802918648
1.090367449528162 0.048128021042724 0.545144968074120
1.105298493071736 0.048889166430281 0.544665529157618
1.107061401870756 0.048412273995815 0.545158581712033
1.138673911381536 0.047469365515250 0.544568187513960
1.140014427543739 0.047097206137447 0.545008117117849
1.149736074784809 0.046954408667745 0.545188231801639
1.158338947570058 0.047047986891150 0.545506142518014
1.089880794518405 0.050331693881133 0.544641859598363
1.090497946340896 0.049517713242982 0.545179021909871
1.090965095536045 0.052060308669055 0.545107884104784
1.078826490939753 0.054444419030905 0.545394662413447
1.091334817002959 0.053927458960753 0.544848546236688
1.078593124942275 0.056502457475402 0.544384853360539
1.092247225267940 0.055838894664762 0.545239394621206
1.078784745574162 0.057960698738440 0.545022005389597
1.091808753650314 0.057861437080556 0.544112574438863
1.092524070986520 0.057964436845293 0.545054205743717
1.078324646723995 0.059082079871553 0.545321123414930
1.091784186264559 0.060024568556652 0.544296905957503
1.092344321427053 0.059800118320428 0.545238546339205
1.091458429296531 0.061916178800607 0.545213014070265
1.090832970677378 0.063987486013079 0.545161283668802
1.079724348650502 0.066459923188292 0.545453128022865
1.080220349292357 0.065289942928766 0.544095695213787
1.090620269462115 0.066008974192128 0.544961899110048
1.080267934075407 0.068880972365832 0.544267197931549
1.090561975228904 0.067607947480781 0.544961206398487
1.080511278135523 0.070132969335011 0.544557216349442
1.089581230446426 0.070322564899499 0.544943008747250
1.090095658002669 0.069031313252237 0.545023795162543
1.080470139894374 0.071349149701087 0.545257249833859
1.089300887397225 0.072016315722226 0.545239866648114
1.089042461118121 0.073773619638113 0.545046341998744
1.089356555474246 0.075757861847304 0.545404683237193
1.089522134649889 0.077937545710362 0.544899201635883
1.089880852762301 0.079959473897635 0.545041609998617
1.090094448612669 0.081727880173678 0.545055322739709
1.090308993711967 0.083932885218708 0.545102744273184
1.090628174246592 0.086157077709548 0.545090401293745
1.090749014545660 0.087988371139903 0.544677877847129
1.090788476389307 0.089567312514728 0.544940545967897
1.091057652586460 0.091706274082134 0.545031383677492
1.091554716685648 0.093768300491641 0.544820958174240
1.091935516013238 0.095968934816007 0.545094916537423
1.092327897301020 0.097788507030920 0.545007955164953
1.092106496759428 0.099058101619936 0.545237237378695
1.224821326785049 0.104508891179208 0.545237704052892
1.230206881397493 0.104664302024251 0.545631727001803
1.229207928828556 0.105586428529653 0.544843234927077
1.230394320864046 0.105628671747990 0.545855118102922
1.092573942094445 0.042530198926155 0.546938845482201
1.094005428903076 0.041948694835014 0.547346469395558
1.097254433160880 0.041187880840880 0.546871715383047
1.090461051763105 0.044048655026966 0.547158251210248
1.197552618282259 0.044829406343646 0.546383717123943
1.198914861754583 0.044577840355129 0.546282362297752
1.201289619654984 0.044063313832763 0.546450002910089
1.089905451439400 0.046281143577412 0.546224070882351
1.090075610654677 0.045675204752772 0.547222081212830
1.151127667392166 0.046437742855793 0.546273858924236
1.153335960523242 0.046691563967999 0.547491414749476
1.155539789982144 0.046344835352580 0.546968116144977
1.161314602162184 0.046902432150467 0.547895942057265
1.164262513511149 0.046435710042484 0.547243744038202
1.191225536346613 0.045173581999589 0.546030901375098
1.201071936359965 0.045127814752685 0.546421662787436
1.090475323649251 0.047943272803916 0.547139481562228
1.108371346848131 0.047914143048605 0.546253102503480
1.145733685977546 0.047370196852331 0.547185487581699
1.147739191596998 0.047460467017093 0.547058410060217
1.151468246909639 0.047048450014487 0.547635417429168
1.153889551632196 0.047452645387751 0.547930389590745
1.155713079071897 0.047236401865684 0.547174642770794
1.158930761213171 0.047528981380111 0.547255861782677
1.160547686939621 0.047160209096998 0.547426621210517
1.090456045928644 0.050151069652245 0.546688279218874
1.090940823090361 0.051868521966744 0.547022190374825
1.079179443789892 0.054036634639559 0.547075094545388
1.091057792795024 0.053489691428368 0.546763743758677
1.078446542139348 0.055773609631863 0.547053387695112
1.091495125424949 0.055797390757631 0.547012759049655
1.078389226312518 0.057676108577023 0.547725849896274
1.091502448219389 0.058384868848430 0.547212445911535
1.091982725573779 0.057571897918510 0.546871948736348
1.078353817355243 0.060156975234650 0.546649747978319
1.091551343218929 0.059683908752525 0.547286672037805
1.092083862318269 0.060278402686201 0.546068047312331
1.078903621864436 0.061836113283142 0.546704983094701
1.091218736502238 0.061695362652754 0.547062173535102
1.078952687503606 0.063741760671940 0.547464602581626
1.090569774720685 0.064175240949096 0.546929638805149
1.089603092169089 0.066895169111491 0.548021829929920
1.090526840887405 0.065771194068392 0.546920062450604
1.079279402365434 0.068035725881450 0.546946352553602
1.089658771056401 0.068426577335312 0.546193421032123
1.090602206793603 0.067996127187934 0.546572455198870
1.079402741084779 0.069672345874174 0.547617962683926
1.089477778707998 0.070234724921453 0.546760821328808
1.090155786158198 0.069667826946942 0.546962698651902
1.080176803678054 0.072124481140401 0.546106150091456
1.089411547133065 0.071788491245438 0.547081482974224
1.080462462834382 0.073784565880482 0.546546474769669
1.089233192778743 0.073948573891587 0.547149084587519
1.080505606328841 0.075815128989811 0.547546705482505
1.089405665241027 0.076228600085237 0.547145719644480
1.080690947957070 0.077054272451671 0.547917408812314
1.089427707772690 0.077683122579517 0.547055093165065
1.090329040376929 0.078333716259898 0.547544076158204
1.089692656243821 0.079611093486077 0.546410931197240
1.090138493580406 0.080067932813178 0.547550532600334
1.089738340636357 0.081972088804883 0.546248749857806
1.090368684737720 0.081934616755061 0.546842443241189
1.089802545026181 0.083715250708974 0.546348201075905
1.090479315688180 0.084335363676276 0.546966286481446
1.090603043174202 0.085872743284895 0.547015126561501
1.090823135269243 0.087933311594270 0.547049325526434
1.090911923155169 0.089901989356960 0.546670118302473
1.221273449299858 0.090265662023002 0.547174508077201
1.222089640461325 0.089991322357809 0.547673983789429
1.090842213585221 0.092062482688580 0.546880494776456
1.091325710995549 0.093887200894183 0.546742216536020
1.091106152426951 0.096022584857098 0.547037914351911
1.090916580909045 0.098162456038485 0.547316495837750
1.091366710254332 0.099632266098458 0.546685642473421
1.092792092703102 0.100274582650265 0.547197968564220
1.093160171917469 0.101482324322697 0.547240425253123
1.224886193300337 0.103909708997475 0.547129955209950
1.231372386874312 0.104236297916991 0.546460735981189
1.231146826281300 0.105339319895499 0.546431370315481
1.231972765799243 0.105061703594908 0.546936811624403
1.093331018286133 0.042679679490264 0.548738533862960
1.095019257559911 0.041857024819459 0.548666629712769
1.091012716470400 0.043811119111062 0.549008806143722
1.090523397402292 0.046026179937707 0.549178597256142
1.118621095349011 0.046006650222557 0.549458939492951
1.125768035439193 0.046470353609361 0.548873263761563
1.126941501910916 0.046099556093168 0.549474274955099
1.129809917853328 0.045513501753251 0.549355989495907
1.130552261876003 0.045263983723342 0.549810273770167
1.162283128325048 0.046651765829483 0.548137754926426
1.191896847676457 0.046446801768863 0.548753122325701
1.192684862081531 0.046181932926537 0.549235355011869
1.194816631129419 0.045958549563163 0.548319637888558
1.090578077420690 0.047941872516612 0.549014116460330
1.140986693758441 0.047889499014051 0.549429163992489
1.142372800485435 0.047521440609028 0.549809346420942
1.144961255046479 0.047930378998181 0.549854245965983
1.148503206922371 0.047503278140103 0.548394868368370
1.150793333185090 0.047807031973386 0.549272020705241
1.153465936056739 0.048317557914565 0.548824010743124
1.154226307861940 0.048061980353439 0.549289327285242
1.156317398689505 0.047858295504264 0.548229751926508
1.090298459810867 0.049907517835220 0.549138737310811
1.090803132478778 0.051667772284478 0.548989231082748
1.079303636240783 0.054253617625369 0.548872831621202
1.080143637030207 0.053793534487946 0.549527544375846
1.090860214512651 0.053867212459271 0.548655622395698
1.078567731558352 0.056029392066773 0.549012754558437
1.091289950910446 0.056058090264268 0.548582415383782
1.078416554512162 0.058023210987809 0.548936420750984
1.091325322136892 0.057781765502171 0.548698158439052
1.078163517470439 0.059688287056705 0.549108193055832
1.091361928629803 0.059937144375639 0.548847255227771
1.078678770736157 0.061762258094972 0.549422029608342
1.090660593881908 0.062128428435513 0.549135837959993
1.079118329036153 0.064069159867406 0.549432422114263
1.089477089623885 0.064505350013446 0.549812071554852
1.090351083217459 0.063561183470330 0.548997676752285
1.079053362874880 0.065911590013280 0.548608514263466
1.089473887619103 0.065905107331251 0.548972640252448
1.078809859520564 0.067783887346689 0.549545929145887
1.089287229668433 0.068089455333979 0.548774976167073
1.079530570717679 0.070902622987698 0.548070090293817
1.089435339977810 0.069828828813014 0.548826661591135
1.079486992196206 0.072109907892585 0.548767602602261
1.089117678328733 0.071938328036850 0.549175928247637
1.080209039856999 0.073820725820616 0.548578912764881
1.089548429053615 0.074210866664305 0.548629432300413
1.080478715236646 0.075876227504679 0.549250055990339
1.089435420268066 0.075733342411618 0.549132487171313
1.080845570842976 0.078116169885918 0.549056785734491
1.089540706526093 0.078002727610041 0.549569117786612
1.090145971888661 0.078177495994743 0.548596646430874
1.081313738286921 0.079972940615574 0.548509840361652
1.089805898247808 0.080285019864368 0.548959002615136
1.090118244887611 0.079036832824957 0.548680323732562
1.081636985010034 0.081636034086774 0.548895087090838
1.082304446732429 0.082597430516120 0.550026997897222
1.089840714588258 0.082016732534817 0.549075247691575
1.089978747993154 0.082172491319472 0.548049102696130
1.082633659994883 0.083813033746875 0.548534866410907
1.089889376132759 0.083319343848775 0.549149709334092
1.090057252702794 0.083845824951239 0.548614817052438
1.083303159180335 0.085954975703771 0.549194975117317
1.090398648500479 0.085742455055471 0.549285612481212
1.083607091604390 0.087203093238007 0.548846068907330
1.084191908581608 0.088526884174151 0.549205322425874
1.090844971190268 0.087941475283614 0.549153027908314
1.083863163824339 0.089662844341285 0.549750506559654
1.084025150793008 0.090496261823196 0.549943563272649
1.090876941449519 0.090039630412668 0.548627966930111
1.222905831622791 0.089716982692617 0.548173459501657
1.090798805715918 0.091759498020802 0.548808560652855
1.091269876641020 0.093978585295618 0.548916697679358
1.091313018565409 0.096188771310649 0.548859743993826
1.092268253425105 0.096567937530054 0.549780621814435
1.091550165194319 0.097969353573515 0.548862754222474
1.092316748515976 0.097879371715354 0.549856054824864
1.091642929703830 0.099368918145350 0.548437552069854
1.092566203429265 0.099624532535090 0.549208402666325
1.227537698249498 0.102910221720122 0.549099922284157
1.228505043201257 0.102657248357882 0.549460328516231
1.230063115244681 0.102494408290760 0.549255957895417
1.225677850775913 0.103427098465868 0.548309125617165
1.226497513954755 0.103151591779849 0.548810726062463
1.093763059199084 0.042546562340547 0.550378086879437
1.094701705330857 0.042490762667735 0.551262156384596
1.091410077822273 0.044170249909639 0.550890791545208
1.092274351352654 0.043295773830373 0.551276311682276
1.091068083116313 0.045755915113038 0.550940519626724
1.128115235460899 0.045728668806141 0.550075449589641
1.186037685988437 0.045927485049260 0.551901006934949
1.193552316214689 0.045630809633442 0.550934766236799
1.194428245624316 0.045825579917066 0.551522550694395
1.090549375533374 0.047991781139594 0.551209049665870
1.142315296458250 0.048105570275896 0.551627940876215
1.148935886629133 0.047828457797162 0.550981880187303
1.153495054949303 0.048625308639180 0.551865479710901
1.155119185557188 0.048406026607656 0.551339105332202
1.157260774284121 0.048063065409907 0.550895505594793
1.158849686615792 0.047554122193781 0.551750910842386
1.161540364208510 0.047227599453384 0.550707776585899
1.162304341570216 0.046970809986014 0.551175299581589
1.090274185047716 0.049722598912785 0.551030839313221
1.080901331571746 0.052868006133021 0.551116275993668
1.090247275886049 0.052094702252751 0.550997345070050
1.080474240512451 0.053865664525934 0.551064871665406
1.090324973915621 0.054051077857926 0.550871467499203
1.079425690955347 0.055918657164325 0.550882175634772
1.090406255139130 0.055770998636245 0.550961076298151
1.078946206186884 0.057765801124798 0.551109970194630
1.089894439417442 0.058662883617161 0.551953211018683
