# .PCD v0.7 - Point Cloud Data file format
VERSION 0.7
FIELDS x y z
SIZE 4 4 4
TYPE F F F
COUNT 1 1 1
WIDTH 912
HEIGHT 1
VIEWPOINT 0 0 0 1 0 0 0
POINTS 912
DATA ascii
-0.010570969 -0.046650305 -0.035429001
-0.0076521342 -0.046448387 -0.035472579
-0.002618205 -0.04642782 -0.035463322
0.0025509673 -0.046409022 -0.035447385
0.0074971151 -0.046348594 -0.035484754
0.010693643 -0.046179608 -0.035424989
-0.010712204 -0.042268168 -0.035401594
-0.0072614197 -0.042455923 -0.035500035
-0.0025587357 -0.042508084 -0.035500035
0.0025291506 -0.042750869 -0.035500035
0.0075311493 -0.042711325 -0.035500035
0.010676217 -0.042177912 -0.035433445
-0.010653038 -0.037765659 -0.035443
-0.0073568793 -0.037488814 -0.035500035
-0.0024626437 -0.037434466 -0.035500035
0.0026847075 -0.037500259 -0.035500035
0.0074536125 -0.037422504 -0.035500031
0.010615336 -0.037530802 -0.035405587
-0.010588836 -0.032410361 -0.035444375
-0.0074686543 -0.032696772 -0.035500031
-0.0027517027 -0.032528035 -0.035500035
0.0024115716 -0.032443479 -0.035500035
0.0074229161 -0.03275374 -0.035500031
0.010677068 -0.032724518 -0.035383034
-0.010691689 -0.027524749 -0.035403091
-0.0074042846 -0.027555399 -0.035500035
-0.0023044343 -0.027361801 -0.035500035
0.0024214415 -0.027709236 -0.035500035
0.0076318509 -0.027500149 -0.035500035
0.010682507 -0.027467486 -0.035402671
-0.01064664 -0.02282621 -0.035418589
-0.0075908047 -0.022608854 -0.035500035
-0.0026956045 -0.022294082 -0.035500035
0.0024575689 -0.022451982 -0.035500035
0.0074935146 -0.022482982 -0.035500035
0.010664921 -0.022242092 -0.035400908
-0.010537132 -0.017284788 -0.035455655
-0.0073517277 -0.017495323 -0.035500035
-0.0024588867 -0.017379588 -0.035500035
0.0024004567 -0.017467808 -0.035499908
0.0075937402 -0.017411865 -0.035500035
0.010593154 -0.017778125 -0.03544106
-0.010732598 -0.012766615 -0.035388906
-0.0077552432 -0.012385849 -0.035500035
-0.002566508 -0.012469931 -0.035500035
0.0025562169 -0.012647493 -0.035500035
0.0073609087 -0.01241574 -0.035500035
0.010706963 -0.012181789 -0.035372831
-0.010685226 -0.0075969654 -0.035405431
-0.0076138778 -0.0074566966 -0.035500035
-0.0025597925 -0.0074750255 -0.035500035
0.0025998165 -0.0073114592 -0.035500035
0.0075223185 -0.0076841675 -0.035500035
0.010624483 -0.0073541692 -0.035408121
-0.010702035 -0.0029584663 -0.035405293
-0.0074494933 -0.0024690363 -0.035500035
-0.0027890948 -0.0026630461 -0.035500031
0.0026706234 -0.0024764326 -0.035500035
0.0074271644 -0.0023626653 -0.035500035
0.010697307 -0.0025050449 -0.035425287
-0.010571118 0.0025502162 -0.03545887
-0.0074690841 0.0024674712 -0.035500035
-0.0024887121 0.0025563326 -0.035500035
0.002465633 0.002479217 -0.035500035
0.0073521296 0.0024272087 -0.035500035
0.010735047 0.0026795773 -0.035390932
-0.010261598 0.0066953842 -0.035433635
-0.0076259449 0.0074010668 -0.035500035
-0.0027559474 0.0074984073 -0.035500035
0.0024931745 0.0075764898 -0.035500031
0.0075661917 0.0072969566 -0.035499744
0.010640416 0.0075519579 -0.035403345
-0.010694248 0.012293253 -0.035383832
-0.007439008 0.012340398 -0.035500035
-0.0023585467 0.012510235 -0.035500031
0.002469613 0.012565653 -0.035500035
0.0073445858 0.012290938 -0.035500035
0.010618973 0.012601997 -0.035398073
-0.010606075 0.017244117 -0.035425387
-0.0077418438 0.017501267 -0.035500031
-0.0024530475 0.017162191 -0.035500038
0.002501677 0.017262554 -0.035500035
0.007666077 0.017580412 -0.035500035
0.010765064 0.017508727 -0.035392217
-0.010755309 0.022837665 -0.035384391
-0.0075702057 0.022466507 -0.035500035
-0.0025695637 0.022624077 -0.035499003
0.0022989637 0.022560455 -0.035500035
0.007655506 0.022131816 -0.035499759
0.010638602 0.022072854 -0.035404589
-0.010219838 0.025544381 -0.035437521
-0.0075499956 0.027526962 -0.035500035
-0.0024086111 0.027483815 -0.035500031
0.0025369439 0.027402148 -0.035500035
0.007313149 0.02758597 -0.035500035
0.010608287 0.027529873 -0.035418052
-0.010790774 0.032547228 -0.035378933
-0.0076234667 0.032375555 -0.035500035
-0.0025431083 0.0323833 -0.035500035
0.0025265315 0.032790542 -0.035500035
0.0075476882 0.032457024 -0.035500031
0.010626802 0.032272626 -0.035429526
-0.010691797 0.037464753 -0.035399754
-0.007456467 0.037354521 -0.035500031
-0.0026527238 0.037483905 -0.035500031
0.0024044227 0.037066616 -0.035500035
0.0075406237 0.037450761 -0.035500031
0.010634412 0.037347727 -0.035419811
-0.01057964 0.042579237 -0.035411216
-0.007526183 0.042536777 -0.035500035
-0.002408237 0.042119928 -0.035498988
0.002366879 0.042451996 -0.035500035
0.0075654509 0.042586368 -0.035500035
0.01064082 0.042408995 -0.035440844
-0.010821429 0.046399873 -0.035359036
-0.0076935873 0.046477649 -0.035457384
-0.0026714595 0.046440344 -0.035455871
0.0026488944 0.046508357 -0.035462551
0.0077939425 0.046575692 -0.035423685
0.010654029 0.046817012 -0.035324194
-0.01068369 -0.045451798 -0.03261514
-0.0074550682 -0.047499992 -0.032604493
-0.0026871229 -0.047500011 -0.032478053
0.0024715823 -0.047499996 -0.032533776
0.0076706479 -0.047499992 -0.032595407
0.010782204 -0.04669835 -0.032524616
-0.011000003 -0.042326521 -0.032415926
0.010856728 -0.042264912 -0.032673124
-0.011000006 -0.037315968 -0.032341842
0.010997968 -0.03714579 -0.032626167
-0.011000003 -0.032453809 -0.032305762
0.011000004 -0.032430582 -0.032393076
-0.011000006 -0.027481766 -0.032504555
0.010698119 -0.02745614 -0.032465614
-0.011000006 -0.0225145 -0.032386828
0.011000002 -0.022591362 -0.03239027
-0.011000003 -0.017405955 -0.032451153
0.011000005 -0.017794222 -0.032416709
-0.011000001 -0.012433879 -0.032661971
0.011000007 -0.012421026 -0.032505926
-0.011000001 -0.0075393179 -0.03259645
0.011000001 -0.0074917469 -0.032447837
-0.010844929 -0.0026946943 -0.032536991
0.010999998 -0.0024765551 -0.03214854
-0.011000006 0.0024380158 -0.032423902
0.010897206 0.0025031716 -0.032332581
-0.011000004 0.0076361615 -0.032456115
0.011000003 0.0076632625 -0.03249969
-0.011000006 0.01246735 -0.032319155
0.01093299 0.012318457 -0.032434009
-0.011000003 0.01728945 -0.032578848
0.011000002 0.017564969 -0.032558244
-0.011000006 0.022632973 -0.032591045
0.011000003 0.022494625 -0.032439522
-0.010999998 0.027728587 -0.032412808
0.011000003 0.027713997 -0.032397952
-0.010828129 0.032232929 -0.03258444
0.011000001 0.032570936 -0.03241897
-0.011000001 0.037497312 -0.032359406
0.011000003 0.037646972 -0.032507233
-0.010999997 0.042282797 -0.032649674
0.010999999 0.0425178 -0.032548912
-0.010817864 0.046588946 -0.032412913
-0.0073833955 0.047365028 -0.032638431
-0.0027222608 0.047500003 -0.032519788
0.0024867624 0.047500018 -0.032508433
0.0074864635 0.046886113 -0.032464266
0.010640749 0.046221044 -0.032677852
-0.01088548 -0.046506759 -0.02739582
-0.0076006977 -0.047499985 -0.027453661
-0.0027521709 -0.047499992 -0.027490024
0.0025356694 -0.047500011 -0.027352417
0.0072800894 -0.047028735 -0.027431024
0.010868337 -0.046589367 -0.027507126
-0.011000001 -0.042519439 -0.027537705
0.011000001 -0.042477634 -0.02778287
-0.011000005 -0.037473716 -0.027553378
0.011000005 -0.037465379 -0.027524291
-0.011000003 -0.032272935 -0.027539657
0.011000004 -0.032607783 -0.027458744
-0.010999999 -0.02777699 -0.027434988
0.011 -0.027574804 -0.027579445
-0.011000002 -0.02245196 -0.027465804
0.010816669 -0.022699669 -0.027505565
-0.011 -0.017338596 -0.027617833
0.010967667 -0.016870655 -0.027341127
-0.011 -0.012144323 -0.027603533
0.010840827 -0.012430871 -0.027447471
-0.011000001 -0.0077661471 -0.027438391
0.011 -0.007377746 -0.027355157
-0.011 -0.0027041549 -0.027476003
0.010685503 -0.0027550359 -0.027508147
-0.011000003 0.0022732052 -0.027589643
0.011000004 0.0026960988 -0.027400168
-0.011000006 0.0076781386 -0.027627135
0.010999998 0.0074041355 -0.027401516
-0.011000006 0.012675498 -0.027434057
0.010999998 0.012574972 -0.027737223
-0.011 0.017745866 -0.027572982
0.011 0.017636519 -0.027566634
-0.011000006 0.022580033 -0.027463671
0.010999998 0.022593629 -0.02747537
-0.010999998 0.027389653 -0.027483776
0.010971748 0.02741898 -0.027831182
-0.011000003 0.03252472 -0.027592614
0.011000003 0.032396544 -0.027434856
-0.010999995 0.037395827 -0.027556639
0.011000003 0.037367083 -0.027373167
-0.010999998 0.042081606 -0.027584255
0.010822583 0.042442102 -0.027546857
-0.010831296 0.046673208 -0.027462693
-0.0073805428 0.046712264 -0.02726797
-0.0023915845 0.047500007 -0.027707195
0.0026759761 0.047500029 -0.027484423
0.007398753 0.047500003 -0.027814826
0.010889452 0.046579231 -0.027631201
-0.010865731 -0.046572052 -0.022608152
-0.0071927961 -0.04691536 -0.022785157
-0.0024751143 -0.047301132 -0.02284126
0.0025665269 -0.047499999 -0.022499915
0.0072297696 -0.047499981 -0.022512956
0.010843975 -0.046631187 -0.022499548
-0.010970416 -0.042260539 -0.022657232
0.010999998 -0.042351548 -0.022515038
-0.011000005 -0.037251808 -0.022476673
0.011000002 -0.037678875 -0.022602286
-0.010848259 -0.032379273 -0.022590348
0.010999999 -0.032847315 -0.022514082
-0.010999998 -0.027304938 -0.022550195
0.011000007 -0.027488794 -0.022547591
-0.011000001 -0.022452895 -0.022657415
0.011000002 -0.022494398 -0.02253681
-0.010999993 -0.017375216 -0.022745166
0.011000008 -0.017613061 -0.022679243
-0.011000002 -0.012551776 -0.022242554
0.010823314 -0.012728185 -0.022647718
-0.011000001 -0.0075923386 -0.022579914
0.010728432 -0.0074398024 -0.022599779
-0.011000005 -0.0024234806 -0.022523701
0.011000007 -0.0025778052 -0.022388177
-0.011000003 0.002487733 -0.022649219
0.010817729 0.002413451 -0.022743771
-0.010999999 0.007344381 -0.022303903
0.011000003 0.0073651029 -0.022569107
-0.011000003 0.012465982 -0.02260104
0.011000005 0.01273612 -0.022726424
-0.010998693 0.017617438 -0.022752116
0.010999998 0.017499911 -0.022549327
-0.010999998 0.022436177 -0.022762105
0.011000007 0.022406325 -0.022618111
-0.011000003 0.027613904 -0.022505263
0.010999998 0.027530141 -0.022601008
-0.010999998 0.032652777 -0.022331491
0.011000002 0.032638878 -0.022616494
-0.011000005 0.037340414 -0.022428766
0.011000001 0.037301477 -0.022586279
-0.010808695 0.041768458 -0.022462051
0.011000005 0.042596444 -0.022510279
-0.010876163 0.046511561 -0.022363393
-0.0072639934 0.047500003 -0.022474414
-0.0025404918 0.047500011 -0.022271059
0.0024618579 0.047500007 -0.022612806
0.0072340141 0.047500003 -0.022739522
0.010858334 0.046531048 -0.022530025
-0.01088796 -0.046683747 -0.017532863
-0.0075054695 -0.047500003 -0.017447757
-0.0024364402 -0.047500007 -0.017340709
0.0025033976 -0.047500018 -0.017503966
0.0077325222 -0.047500014 -0.017468529
0.010858452 -0.04659209 -0.017517956
-0.010873952 -0.041400831 -0.017658126
0.010815128 -0.042220138 -0.01770323
-0.011000001 -0.037614763 -0.017447062
0.011000001 -0.037661958 -0.017633075
-0.010999996 -0.032549951 -0.017550737
0.011000001 -0.032588944 -0.017729167
-0.010828166 -0.027282439 -0.017654443
0.010824004 -0.027118405 -0.017824069
-0.011 -0.022380952 -0.017501185
0.011000003 -0.022316508 -0.017523207
-0.011000001 -0.017451428 -0.017603846
0.011000006 -0.017611917 -0.017432753
-0.01082114 -0.012139759 -0.017599072
0.011000003 -0.012632205 -0.017700654
-0.010971593 -0.0076925252 -0.017654018
0.011000001 -0.0075838231 -0.01751297
-0.011000002 -0.0022982988 -0.017723598
0.011000001 -0.0022805647 -0.017419536
-0.011000005 0.0026759284 -0.017643601
0.011000001 0.0024294974 -0.017523468
-0.011000001 0.0076633808 -0.01755541
0.01082114 0.0073260241 -0.017238632
-0.011000003 0.012388867 -0.017436881
0.011000001 0.012267234 -0.017425973
-0.010999994 0.01756472 -0.017717773
0.011000005 0.017434595 -0.017829688
-0.010999997 0.022568891 -0.017655695
0.011000007 0.022441953 -0.017432626
-0.011000001 0.027276594 -0.017558869
0.011000001 0.02767502 -0.01755221
-0.011000003 0.032425005 -0.017453272
0.01082114 0.031985104 -0.017413838
-0.010999995 0.037456732 -0.0174035
0.011000001 0.037416257 -0.017123867
-0.010717377 0.041676648 -0.017697411
0.011000004 0.042521939 -0.017542241
-0.010627812 0.044927031 -0.017779373
-0.0076767481 0.047059972 -0.017900331
-0.0024677466 0.046848822 -0.017612133
0.0024788987 0.047500014 -0.017534774
0.0077750646 0.047500007 -0.017374692
0.010882227 0.046550307 -0.017362358
-0.010855805 -0.046611596 -0.012313277
-0.00745745 -0.047500007 -0.012517654
-0.0023825262 -0.046717901 -0.012677778
0.0024965901 -0.047304019 -0.012556029
0.0075337663 -0.047500014 -0.012479653
0.010866535 -0.046578031 -0.01257934
-0.011000006 -0.042518511 -0.012695979
0.010874106 -0.041779794 -0.012630324
-0.010999995 -0.037259415 -0.012425525
0.010999998 -0.037735514 -0.012623625
-0.010880516 -0.03223056 -0.012815698
0.010998184 -0.031951118 -0.012714625
-0.010894837 -0.027576352 -0.012477463
0.011000005 -0.027546603 -0.012420224
-0.011000007 -0.022371048 -0.012736493
0.011000003 -0.022488333 -0.012380675
-0.011000001 -0.017504869 -0.012420256
0.011000006 -0.017014602 -0.012920246
-0.011000005 -0.012584719 -0.01236535
0.011000005 -0.012458955 -0.012688641
-0.010857801 -0.0072402181 -0.012913013
0.011000007 -0.0074340659 -0.012634291
-0.011000002 -0.002385465 -0.01249239
0.011000003 -0.0028016146 -0.012703619
-0.011000006 0.0027034017 -0.012514571
0.011000004 0.0024950369 -0.012751747
-0.011000001 0.007558424 -0.0125448
0.010966625 0.0073716585 -0.012929703
-0.010999997 0.012432756 -0.012816779
0.010838241 0.012571064 -0.012809019
-0.011000002 0.017486325 -0.01250705
0.011000008 0.017526623 -0.012471367
-0.010999995 0.022289224 -0.012697258
0.011000001 0.022597313 -0.012446835
-0.010788141 0.027430354 -0.012315267
0.010824398 0.02669346 -0.012647441
-0.010999999 0.031890772 -0.012714635
0.010998269 0.032117616 -0.01282623
-0.011000002 0.037532747 -0.012490122
0.011000005 0.037632715 -0.012568219
-0.010967894 0.041694872 -0.012735454
0.01080061 0.042320929 -0.012848774
-0.010870809 0.046683509 -0.012658137
-0.0075616804 0.04749997 -0.012289328
-0.0022691651 0.047253419 -0.012458594
0.0023431669 0.046733879 -0.012456488
0.0077231731 0.047064539 -0.012468814
0.010797223 0.046749897 -0.012508076
-0.010872388 -0.046573624 -0.0075964467
-0.0075362856 -0.047499999 -0.0076519558
-0.0025366179 -0.047499999 -0.0074658431
0.002599804 -0.046688039 -0.0074415398
0.0075685098 -0.047499999 -0.0075993687
0.010887628 -0.046551716 -0.007412022
-0.010999995 -0.042429619 -0.0073823687
0.011000003 -0.042332739 -0.0073078643
-0.011000002 -0.037647314 -0.0075572678
0.010829139 -0.036870237 -0.007744519
-0.010824065 -0.032004867 -0.0076988256
0.010841734 -0.032290105 -0.0075759734
-0.011000008 -0.027727252 -0.0076566935
0.010460426 -0.026591614 -0.0079609444
-0.011000003 -0.022510221 -0.0075346683
0.011 -0.02213148 -0.0071780453
-0.011000002 -0.017184667 -0.0072924108
0.010883017 -0.017305572 -0.0074475436
-0.011000008 -0.012529393 -0.0076513402
0.011000005 -0.012446774 -0.0077710329
-0.011000002 -0.007307325 -0.0075650164
0.010811571 -0.0075094285 -0.007596327
-0.010999998 -0.0025000491 -0.0074450318
0.011000003 -0.0024914341 -0.0076212566
-0.010974522 0.0021739614 -0.0075123655
0.010997403 0.002603278 -0.0075344481
-0.011000006 0.0073345331 -0.0075406427
0.011000002 0.0076015489 -0.0074502151
-0.010841813 0.012349084 -0.0073687276
0.01075043 0.012912036 -0.0077726999
-0.011000001 0.017479742 -0.0074464399
0.011000006 0.016933734 -0.0075332522
-0.011000004 0.022246001 -0.0074325819
0.010656253 0.022049632 -0.0077478779
-0.011000002 0.02741429 -0.0073661627
0.010999995 0.027635738 -0.0076578939
-0.011000006 0.03237861 -0.0075908583
0.011000005 0.032559283 -0.0075639579
-0.010772831 0.036765546 -0.0079135532
0.011000001 0.037424259 -0.0077191838
-0.011000005 0.042251669 -0.0076802215
0.011000005 0.04230383 -0.0075907479
-0.010836983 0.046644434 -0.0073871654
-0.007328738 0.047500014 -0.007496926
-0.0025564278 0.047499999 -0.007413147
0.0024098412 0.047500014 -0.0074368203
0.0074151834 0.047500003 -0.0074133147
0.01088428 0.046724297 -0.0078036324
-0.010858762 -0.046628274 -0.0025584642
-0.0074734082 -0.047500018 -0.0024116202
-0.00236888 -0.047384195 -0.0030556414
0.002387481 -0.047077473 -0.0031716307
0.0075582736 -0.047185443 -0.0025193652
0.010867163 -0.046608765 -0.0024785129
-0.011000005 -0.042634841 -0.0023202833
0.010999998 -0.042384442 -0.0025395493
-0.011000006 -0.037629526 -0.0025611992
0.011000005 -0.037261803 -0.0023480207
-0.010998399 -0.032304484 -0.0025665502
0.010999999 -0.032248743 -0.0026382923
-0.011000003 -0.027395789 -0.0025746631
0.011000006 -0.027531037 -0.0025933969
-0.011000005 -0.022468004 -0.0025297434
0.011000002 -0.022316175 -0.0024362437
-0.010969084 -0.017226437 -0.0034183238
0.011000005 -0.016966309 -0.0026632149
-0.011000003 -0.012454781 -0.0024815383
0.011000003 -0.012321533 -0.0025934563
-0.010973969 -0.007005929 -0.0027050863
0.010828129 -0.0073373853 -0.0026872877
-0.011000005 -0.0027366742 -0.0025749381
0.011000005 -0.0025945415 -0.0025790243
-0.011000002 0.0025212886 -0.0024676418
0.010999998 0.0026910806 -0.0025079644
-0.010815128 0.0074875848 -0.0026281043
0.011000005 0.0074707298 -0.0025481877
-0.011000007 0.012472339 -0.002437358
0.010651745 0.012129392 -0.0029928428
-0.011000001 0.017420445 -0.0026023462
0.011000001 0.017129868 -0.0026219329
-0.010799998 0.02217328 -0.0025894712
0.011000005 0.022301402 -0.0024452566
-0.011000005 0.027611475 -0.0027253972
0.011000006 0.027498601 -0.002375199
-0.010999998 0.032528535 -0.0024395227
0.011000005 0.032725863 -0.0023567174
-0.010584921 0.036615279 -0.0026130097
0.010999993 0.037538107 -0.0024701396
-0.011000001 0.042680319 -0.002382081
0.010895647 0.042328317 -0.0027638199
-0.010808897 0.046678014 -0.0026194796
-0.007585573 0.047499981 -0.0026996497
-0.0023670255 0.047500022 -0.0024725816
0.0024760042 0.046617441 -0.0028251971
0.0075489767 0.047500003 -0.0024877493
0.010349128 0.045661591 -0.0033666408
-0.010820137 -0.046445586 0.0023202477
-0.0074316361 -0.047500003 0.0026711051
-0.0025656195 -0.045931291 0.002369656
0.0026513685 -0.047500025 0.0026192139
0.0076590371 -0.047500007 0.00262937
0.010857021 -0.0466244 0.0023892003
-0.01092701 -0.042465467 0.0024365408
0.011000003 -0.04245393 0.0026168642
-0.011000006 -0.037487838 0.002657203
0.011000001 -0.037296329 0.0025965848
-0.010999997 -0.032289032 0.002556134
0.010999997 -0.032564692 0.0025878095
-0.010999998 -0.027394179 0.0027940085
0.010816669 -0.027369527 0.002618649
-0.010999999 -0.022786746 0.0027564706
0.010997144 -0.02198456 0.0021441595
-0.011000005 -0.017377095 0.0026086734
0.010783226 -0.016581975 0.0023187839
-0.010999998 -0.012775001 0.0023755219
0.011000002 -0.012235841 0.0024934765
-0.011000007 -0.0075135725 0.0024594336
0.011000005 -0.0075795581 0.0024477697
-0.010924559 -0.0029350743 0.0024585279
0.011000005 -0.0026991004 0.0024409848
-0.010844192 0.002128473 0.0023176933
0.010997914 0.0022932694 0.0024015009
-0.011000009 0.007579498 0.002420835
0.011000002 0.007230605 0.0023956294
-0.011000001 0.012307382 0.002602136
0.011000006 0.012685268 0.0027831472
-0.010847786 0.017185163 0.0020477171
0.010999997 0.017271072 0.0023759408
-0.011000001 0.022357652 0.0026192118
0.011000006 0.022392686 0.0025486841
-0.010880511 0.027290478 0.0021857752
0.011000005 0.027343269 0.0022998375
-0.011000002 0.032383218 0.0024952802
0.011000006 0.03251867 0.0025095951
-0.011000007 0.037640553 0.002488856
0.010901588 0.037053023 0.0017481054
-0.011000005 0.042517722 0.0025305005
0.011000007 0.042453647 0.0025162313
-0.010888818 0.046454821 0.0024240699
-0.0073707984 0.047500014 0.0027164116
-0.0021674982 0.04716311 0.0025197077
0.0024713341 0.047500025 0.0025606281
0.0076818028 0.047419988 0.002222863
0.010834053 0.046586018 0.0027420742
-0.010859666 -0.046622783 0.0069840979
-0.0074703051 -0.04668919 0.0070311544
-0.0025746794 -0.047323648 0.0076106158
0.0024897107 -0.047500014 0.0075190873
0.0075736176 -0.046077013 0.0069939527
0.010862246 -0.046510849 0.0075087524
-0.011000005 -0.042560551 0.0075062723
0.011000005 -0.042570166 0.0077066915
-0.010890031 -0.036978818 0.0072515858
0.010832066 -0.037159771 0.0072711166
-0.010829504 -0.032760985 0.0072849719
0.010693223 -0.03147196 0.0069252565
-0.010845177 -0.027050069 0.0069071646
0.010928682 -0.027150778 0.0072369748
-0.011000002 -0.021898286 0.007463139
0.011000003 -0.022422254 0.0075101759
-0.011000001 -0.017519366 0.0077028885
0.010871436 -0.017519612 0.0069245729
-0.011000001 -0.012606852 0.0075797043
0.010974886 -0.012894705 0.007499394
-0.010824004 -0.007406584 0.0074507911
0.011000005 -0.0076739513 0.0076754186
-0.011000005 -0.0022927879 0.007483297
0.011000003 -0.0024556234 0.0075574946
-0.010819282 0.0021073963 0.0076884432
0.010996535 0.0027751678 0.0071595521
-0.010997316 0.0077067045 0.007259171
0.010846093 0.0069570807 0.0073962086
-0.010815037 0.012794898 0.006942038
0.011000001 0.012564903 0.0076329997
-0.010933065 0.016891722 0.0073428233
0.010701247 0.017035929 0.0075287144
-0.011000005 0.022497829 0.0076713725
0.010999998 0.021963067 0.0075271223
-0.011 0.027384618 0.0076115229
0.011 0.02746716 0.0073354961
-0.010798605 0.032327723 0.007171852
0.011000005 0.032412618 0.0075960574
-0.011000006 0.036957659 0.0072429371
0.011000001 0.037633475 0.0075151119
-0.010752684 0.041807562 0.0069715315
0.011 0.042537265 0.007608165
-0.010870682 0.04652654 0.007607731
-0.0075290962 0.047499992 0.0075636846
-0.0025586414 0.047500011 0.0076073031
0.0023414274 0.047500022 0.0074101677
0.0074593532 0.047059916 0.0071336837
0.010624426 0.045454357 0.0074666529
-0.01084139 -0.046706066 0.012595922
-0.0077916081 -0.047500018 0.012424733
-0.0026078064 -0.047500014 0.012665459
0.0027271335 -0.047499992 0.012694353
0.0075512701 -0.047499999 0.012474035
0.010823655 -0.046670459 0.012322728
-0.011000001 -0.042377662 0.012334361
0.01081356 -0.042078886 0.01216915
-0.010943674 -0.03689165 0.012279485
0.010850069 -0.036955655 0.011955516
-0.010827018 -0.031651817 0.012608178
0.011000006 -0.032558769 0.01238536
-0.011000006 -0.027768781 0.012456701
0.010969133 -0.026975337 0.012560932
-0.011000006 -0.022404235 0.012506016
0.010997117 -0.022435127 0.012005978
-0.011000005 -0.017702769 0.012614075
0.011000004 -0.017449103 0.012262424
-0.011000005 -0.012511104 0.012470143
0.011000001 -0.012179141 0.012482881
-0.011000005 -0.0078389999 0.01248322
0.01083951 -0.0068286452 0.011790899
-0.010998396 -0.0022804248 0.012218471
0.010816242 -0.0029825324 0.012011591
-0.011000005 0.0027186333 0.012560305
0.010999023 0.0020741886 0.012526508
-0.010813474 0.0070843934 0.012460688
0.010935012 0.0069116158 0.011834403
-0.011000009 0.012460721 0.01231594
0.011000004 0.012338123 0.012423309
-0.0108884 0.017226322 0.012587477
0.011000006 0.017413804 0.012828251
-0.010834843 0.022066223 0.012262682
0.011000003 0.022483166 0.012422196
-0.010999992 0.027142402 0.012490939
0.01080531 0.027267156 0.012138342
-0.010817705 0.032046381 0.011903043
0.010630254 0.031548701 0.012479358
-0.010826792 0.036797643 0.012230576
0.010999998 0.037603501 0.012397754
-0.010871788 0.042306997 0.012149534
0.010679109 0.042064928 0.01212964
-0.010893877 0.045358121 0.012527388
-0.0074954289 0.047500003 0.012475248
-0.0024026439 0.047500014 0.012283342
0.0021906411 0.046735194 0.012194063
0.0077082566 0.046722535 0.01233298
0.010836464 0.046593942 0.01234522
-0.010584381 -0.046174183 0.017124096
-0.0077852076 -0.047500018 0.017606104
-0.0028163507 -0.047499999 0.017566875
0.002568671 -0.047500007 0.017549675
0.007273077 -0.047487989 0.016884612
0.010817166 -0.046564236 0.01733385
-0.010999028 -0.042284422 0.01703511
0.010997364 -0.041751228 0.01702976
-0.010999999 -0.037392143 0.017831914
0.011000007 -0.037419252 0.017496753
-0.010999994 -0.03258349 0.017949691
0.010926535 -0.031779714 0.017021321
-0.011000003 -0.02690886 0.016852543
0.01096458 -0.027386606 0.017121162
-0.010640267 -0.022312524 0.017105959
0.010970761 -0.022532864 0.017132204
-0.011000006 -0.017651187 0.017579209
0.011000004 -0.017448558 0.017509364
-0.011000001 -0.012434717 0.017575547
0.011000001 -0.012515038 0.01733933
-0.011000006 -0.0076447856 0.017407432
0.0106174 -0.0076056784 0.016935341
-0.010925079 -0.0025130874 0.016766902
0.011000005 -0.0025740336 0.017732609
-0.011000001 0.0026057484 0.017462811
0.010999999 0.0023481448 0.017617283
-0.010658437 0.0075720893 0.016994027
0.010790454 0.0075585833 0.01687992
-0.010821015 0.012924272 0.017372435
0.011 0.012637189 0.017365342
-0.011000003 0.017502498 0.017509729
0.011000007 0.017558267 0.017272299
-0.011000002 0.022608925 0.017538207
0.011000002 0.0223876 0.017306672
-0.011000005 0.027349344 0.017538251
0.011000002 0.027585218 0.017282987
-0.010811967 0.032297131 0.016658014
0.010999992 0.032927327 0.017478755
-0.010999443 0.037450299 0.017429963
0.011000001 0.037351608 0.017393794
-0.010999997 0.042666677 0.017466523
0.011 0.04234264 0.017552648
-0.010582322 0.044645403 0.016416956
-0.0072607547 0.047500011 0.017700892
-0.0025565359 0.047237385 0.017542293
0.0022943928 0.047145516 0.017260924
0.007743245 0.047010809 0.017146738
0.010857062 0.046710413 0.017512854
-0.010846187 -0.046766911 0.022479951
-0.007321897 -0.047500025 0.022727361
-0.0024770002 -0.047108583 0.021968441
0.0024694377 -0.047319524 0.022136405
0.0075072744 -0.046886012 0.021993548
0.010879115 -0.04671225 0.022565898
-0.010999995 -0.042045049 0.022701468
0.011000007 -0.04251013 0.022410737
-0.011000001 -0.037353899 0.022503849
0.010664527 -0.037323378 0.021831948
-0.010998989 -0.032192621 0.022324041
0.011000006 -0.032334402 0.02241857
-0.010842542 -0.026203118 0.021135585
0.010681974 -0.026961938 0.022398381
-0.010999995 -0.022598801 0.022479402
0.010828361 -0.022624953 0.022029743
-0.011 -0.017131824 0.022187721
0.011000003 -0.017573571 0.022554856
-0.011000006 -0.012413615 0.022509655
0.010927404 -0.012672255 0.022065023
-0.011000003 -0.0075088781 0.022279272
0.010796295 -0.0072889114 0.022350859
-0.010745402 -0.0027289626 0.021325825
0.011000007 -0.0024788403 0.022448776
-0.010806641 0.002576157 0.022031529
0.010799998 0.0025876267 0.021864509
-0.010802728 0.0077252495 0.021837719
0.011000003 0.007735482 0.022398803
-0.011000003 0.012365402 0.022498392
0.011000003 0.012361579 0.022361804
-0.010973047 0.017430052 0.022290796
0.011000003 0.017566763 0.022606388
-0.010998886 0.022452513 0.022165559
0.011000003 0.021970207 0.021998379
-0.011000007 0.027393598 0.02251317
0.011000003 0.027596353 0.022393066
-0.010999998 0.032753982 0.02249142
0.011000005 0.032272674 0.022420835
-0.010822583 0.037156306 0.022321979
0.010789083 0.036785379 0.021665847
-0.010810345 0.042303968 0.022168253
0.010833339 0.042359196 0.022469498
-0.010825294 0.046668693 0.022392588
-0.0074108345 0.046773635 0.022275262
-0.0023681626 0.047500022 0.022588987
0.0026119123 0.047500007 0.022753833
0.0075696409 0.047499985 0.022406442
0.010846681 0.04665029 0.022445388
-0.01073081 -0.046571679 0.026690969
-0.0072901784 -0.047009394 0.027391052
-0.0024675855 -0.047030643 0.027146105
0.0025824206 -0.047499999 0.027595857
0.007397831 -0.046050113 0.026801812
0.010840489 -0.046537708 0.027326427
-0.010850424 -0.0420768 0.026958823
0.010911593 -0.042273212 0.027188446
-0.010999999 -0.036885485 0.027077762
0.010999997 -0.037450127 0.027458811
-0.010999999 -0.032567248 0.0273304
0.010941846 -0.031660654 0.027104111
-0.011000003 -0.026895834 0.026908632
0.010860152 -0.02781884 0.026862158
-0.010999999 -0.022500295 0.027285285
0.010998785 -0.022738919 0.027195884
-0.010893485 -0.017799975 0.026636705
0.010822051 -0.017804634 0.026670229
-0.011000001 -0.012115223 0.027035015
0.010830774 -0.012349061 0.027004443
-0.011000006 -0.007441985 0.027648086
0.010864032 -0.0072913673 0.026609512
-0.010999998 -0.0021599205 0.027543385
0.010687949 -0.0024981594 0.02679524
-0.010846395 0.0024137523 0.026715532
0.010808695 0.0019649409 0.027306141
-0.010998941 0.0077556712 0.027627412
0.011000006 0.007559076 0.027689688
-0.011000003 0.012550246 0.027594145
0.011000005 0.012522978 0.027623367
-0.010808695 0.017139459 0.027144002
0.011000006 0.017659891 0.027567523
-0.010838241 0.022710374 0.027088666
0.010897818 0.022356384 0.027001671
-0.010999995 0.027300095 0.027310962
0.010786404 0.027516078 0.026892493
-0.010999765 0.032255288 0.027224587
0.011000004 0.03262306 0.027734239
-0.011000002 0.037432123 0.027523668
0.010999999 0.037425186 0.02740038
-0.01099726 0.041681055 0.027159253
0.010833213 0.04217286 0.02722358
-0.010303289 0.045619417 0.026230663
-0.0073678317 0.047499981 0.027615136
-0.0024667131 0.047500007 0.027706567
0.002775792 0.047499999 0.02762562
0.0075205551 0.047500003 0.027600946
0.010818685 0.04669058 0.027380977
-0.010864796 -0.046571024 0.032167055
-0.0075681196 -0.047499999 0.032599438
-0.0026522698 -0.04670535 0.031879101
0.0024603393 -0.047500018 0.032768283
0.0072904648 -0.047286659 0.032420833
0.010860722 -0.046561833 0.032391567
-0.010998398 -0.042328365 0.032023735
0.010999998 -0.042691503 0.032598484
-0.011000001 -0.037594769 0.03255064
0.010837629 -0.036642227 0.030856932
-0.011 -0.032654583 0.032557968
0.011000005 -0.032557219 0.032515503
-0.011000006 -0.027456433 0.032624677
0.011000003 -0.027558208 0.032681603
-0.010823921 -0.021802805 0.03218485
0.011000005 -0.022518713 0.032300651
-0.010918655 -0.016728923 0.03135442
0.011000005 -0.017871579 0.032283157
-0.010841734 -0.011838392 0.032321308
0.01082114 -0.012311417 0.032186549
-0.010608806 -0.0080361571 0.031140622
0.010887015 -0.0069055604 0.031817682
-0.010997653 -0.0022593646 0.032015786
0.011000006 -0.0025071432 0.032349747
-0.010824004 0.0021616651 0.032218866
0.011000003 0.0024374358 0.03252884
-0.011000006 0.0075300066 0.032557406
0.010968737 0.0083294157 0.032149278
-0.01075945 0.012093934 0.031677283
0.011000001 0.012677676 0.032528654
-0.010999998 0.017547302 0.032055032
0.011000005 0.017478943 0.032420106
-0.010835307 0.022947013 0.032005724
0.010726475 0.022026397 0.031412717
-0.011000001 0.027206363 0.032245476
0.011000008 0.027581254 0.032329042
-0.011000002 0.032351784 0.032559108
0.011000005 0.032756686 0.032452751
-0.010879557 0.036747418 0.032270264
0.010999999 0.037571948 0.032386687
-0.010734286 0.042085197 0.031448264
0.010803571 0.041761808 0.032274835
-0.010804955 0.046357855 0.032139156
-0.0074747247 0.047499999 0.032308895
-0.0024912134 0.047500007 0.032574531
0.002613534 0.047499973 0.032637086
0.0075776307 0.047500018 0.032524355
0.010836144 0.046693586 0.032618091
-0.010793877 -0.046681777 0.035356782
-0.007582502 -0.046418402 0.03546644
-0.0026949223 -0.046520438 0.035444267
0.0024994574 -0.046396878 0.035465125
0.0072280969 -0.044717517 0.034415502
0.01068705 -0.046084031 0.035454519
-0.0098527838 -0.041765139 0.032819774
-0.0074606212 -0.042091306 0.034803957
-0.0025613618 -0.042537272 0.035500035
0.0022699723 -0.042090513 0.035371117
0.0073920353 -0.042062864 0.035302792
0.010693404 -0.042472623 0.035392419
-0.010720518 -0.037711836 0.035361804
-0.0077761365 -0.03724838 0.035500035
-0.0025966985 -0.037531979 0.035500031
0.0024484617 -0.036498196 0.035332166
0.0074674296 -0.037015747 0.035320189
0.010663456 -0.038071387 0.035435777
-0.010587589 -0.032979716 0.035427395
-0.0074546738 -0.032031067 0.035400901
-0.0023476242 -0.03199685 0.034847539
0.0023342974 -0.03253711 0.035500035
0.0073709828 -0.032511901 0.035500035
0.010627139 -0.03253774 0.03540853
-0.010708975 -0.027391747 0.035429366
-0.0073709507 -0.02751728 0.03500754
-0.0020788633 -0.027671255 0.035245519
0.0025666282 -0.027414076 0.035500031
0.0074197664 -0.027472535 0.035155285
0.010693107 -0.027199818 0.035408802
-0.01061201 -0.022829337 0.035454717
-0.0072984342 -0.021911798 0.034820449
-0.0024755816 -0.0224104 0.035500035
0.0026070122 -0.022377258 0.035500035
0.0075792586 -0.022450902 0.034861226
0.010704808 -0.022853073 0.034792837
-0.010313607 -0.018150883 0.035098687
-0.0074639604 -0.017582862 0.035500035
-0.0024003533 -0.017211353 0.035439763
0.0026201841 -0.016979337 0.034571595
0.0077518658 -0.017661413 0.035500035
0.010547117 -0.017470486 0.032785639
-0.010683862 -0.013009992 0.035420988
-0.0075717005 -0.012511941 0.035002213
-0.0024774806 -0.012470533 0.035500035
0.0026096217 -0.012854047 0.035500035
0.0072936201 -0.0125498 0.034407768
0.010669407 -0.012352912 0.035392396
-0.010600488 -0.0075100474 0.035454281
-0.007496383 -0.0070273317 0.035010554
-0.0023563791 -0.0076393951 0.034953881
0.0025304887 -0.0070354566 0.034164228
0.0075559262 -0.007032054 0.035476632
0.010638146 -0.0070855762 0.034913834
-0.010245641 -0.003413257 0.034549456
-0.00764975 -0.0024454738 0.035500035
-0.0026765654 -0.002621942 0.035500031
0.0026789533 -0.0025237496 0.035500035
0.0076963468 -0.0028647643 0.035286181
0.010649731 -0.0024162764 0.035430674
-0.010769539 0.001799844 0.035429925
-0.0074136751 0.0026893767 0.035500035
-0.0025386144 0.0022317539 0.035474669
0.0024964344 0.0025531875 0.035500031
0.0073964563 0.0022841275 0.03547556
0.010674077 0.0026361549 0.035396207
-0.010517302 0.0081697181 0.035438973
-0.0075825327 0.0072585978 0.035471398
-0.0024883628 0.0074422373 0.035048921
0.0024386893 0.007542572 0.035500035
0.0076127346 0.0075823553 0.035500035
0.010722441 0.0071381298 0.035397146
-0.01063162 0.012794302 0.035431217
-0.0077331974 0.012213112 0.035362154
-0.0023343689 0.012678022 0.035023656
0.0025688121 0.012016085 0.035431892
0.0075353747 0.011886483 0.035274755
0.010691011 0.012378188 0.035423785
-0.01066807 0.016974736 0.033438586
-0.0075382874 0.017319994 0.035358928
-0.0021725707 0.017585924 0.034529496
0.0024000525 0.016634455 0.03540583
0.0073167114 0.017546162 0.035500031
0.010670293 0.017864399 0.035449106
-0.010737875 0.022450816 0.035380442
-0.0070833052 0.021742646 0.034794126
-0.0024679594 0.022348648 0.035500035
0.0024938153 0.021538369 0.034789793
0.0074973819 0.022395303 0.035500035
0.010774304 0.022774244 0.035354074
-0.01057711 0.025242224 0.033022154
-0.0074776034 0.026517475 0.034801036
-0.0024237523 0.02628611 0.034887839
0.0024930409 0.027404146 0.035500035
0.0075361417 0.027688626 0.035250019
0.01065295 0.027765337 0.035421655
-0.010667705 0.032478582 0.033877157
-0.0073254863 0.032424457 0.035500035
-0.0023352017 0.032617986 0.034898337
0.0023802158 0.031725034 0.035155401
0.0075567253 0.03249009 0.035500035
0.010686183 0.032706991 0.035433099
-0.010271353 0.03469684 0.033696789
-0.007432851 0.036871728 0.034594748
-0.0023909686 0.037468463 0.035093497
0.0023017651 0.037418008 0.035500031
0.0074725198 0.037446283 0.034994204
0.010618712 0.037705071 0.035400774
-0.010621974 0.042233892 0.035450626
-0.0074006231 0.041538622 0.034958195
-0.0029001026 0.040871531 0.034630347
0.0024819861 0.041840084 0.035175066
0.0073320558 0.041862234 0.035292573
0.0097792847 0.039955892 0.033937812
-0.0095672775 0.042594772 0.033330221
-0.0074797804 0.046552841 0.035427179
-0.0024779395 0.046267718 0.035324667
0.002402497 0.045451559 0.035211947
0.007482186 0.046482515 0.035430051
0.01079732 0.046563573 0.035404831
