# .PCD v0.7 - Point Cloud Data file format
VERSION 0.7
FIELDS x y z
SIZE 4 4 4
TYPE F F F
COUNT 1 1 1
WIDTH 1254
HEIGHT 1
VIEWPOINT 0 0 0 1 0 0 0
POINTS 1254
DATA ascii
-0.017438088 0.012256243 -0.027252503
-0.013795364 0.01282052 -0.029300043
0.013819405 0.012184022 -0.029287195
0.017563967 0.012091388 -0.027187867
0.020442838 0.0131607 -0.025064096
-0.020311061 0.017243024 -0.02517225
-0.017645547 0.017811859 -0.027101833
-0.013911366 0.017301027 -0.029238043
0.01403769 0.017226199 -0.029170534
0.017661955 0.017916951 -0.027104303
0.020365037 0.017311897 -0.025127947
-0.02023175 0.022518096 -0.02523734
-0.017694356 0.022664189 -0.027086847
-0.013713893 0.022256207 -0.029343579
0.014048533 0.022167662 -0.029164735
0.017170014 0.02256838 -0.027421864
0.020330191 0.023015503 -0.025156548
-0.020183764 0.02612856 -0.025276721
-0.01723996 0.027265592 -0.027176144
-0.013041957 0.028023362 -0.029310685
0.013107819 0.027584873 -0.029390737
0.018025305 0.027265472 -0.026644595
0.020278467 0.026391413 -0.02515462
-0.0165367 0.03222182 -0.026019027
-0.012715601 0.03265987 -0.027881352
-0.0079196617 0.033458076 -0.029330552
-0.0035098388 0.034527399 -0.029818714
0.0030492716 0.03452497 -0.029864898
0.0079162298 0.033126559 -0.029449316
0.012334501 0.032486629 -0.028118115
0.016518658 0.031857047 -0.026164562
-0.015610918 0.035740025 -0.025238877
-0.012101354 0.037385013 -0.026423829
-0.0073820977 0.037563499 -0.028051827
-0.0025991285 0.037376314 -0.028944027
0.0027999599 0.037400465 -0.028917277
0.0076819747 0.038023081 -0.027794244
0.012171003 0.037518386 -0.026372615
0.01553461 0.03546723 -0.025381941
-0.010823088 0.040822398 -0.025732625
-0.0075576706 0.042175587 -0.026270129
-0.0024029694 0.042331733 -0.02717443
0.0023392646 0.042503733 -0.027117589
0.007447673 0.041984368 -0.026378337
0.011169313 0.04125464 -0.025380924
-0.0060847318 0.045220945 -0.02556104
-0.0024455008 0.046834733 -0.02553392
0.0024401513 0.046454016 -0.025669791
0.0062288814 0.045788325 -0.025303442
-0.025241714 -0.09577436 -0.020226419
-0.0223186 -0.096858516 -0.022352837
-0.017745104 -0.097499982 -0.022305207
-0.012797834 -0.097499996 -0.022429572
-0.0071985782 -0.097500019 -0.02235809
-0.0022057141 -0.09478078 -0.022721469
0.0022244998 -0.097499996 -0.022595949
0.0076198969 -0.097499974 -0.022731274
0.012403366 -0.097499974 -0.022450414
0.017652437 -0.097499952 -0.022698857
0.022198582 -0.096949346 -0.022480344
0.02516726 -0.096566439 -0.020317137
-0.025201276 -0.093251206 -0.020275692
-0.022949602 -0.092213683 -0.022783438
0.022820968 -0.092802465 -0.022931652
0.025218502 -0.09278354 -0.020254701
-0.02530955 -0.087535396 -0.020143768
-0.022839254 -0.087042347 -0.022887319
0.022918213 -0.087442413 -0.022851858
0.025214581 -0.087355293 -0.020259481
-0.025205646 -0.083132841 -0.020270368
-0.022906195 -0.082388692 -0.022852607
0.022639971 -0.082755946 -0.023101676
0.025212171 -0.082500815 -0.020262416
-0.025233656 -0.07696189 -0.020236235
-0.022568654 -0.077579193 -0.023171486
0.022607462 -0.077641368 -0.023146428
0.025196731 -0.077616759 -0.020281229
-0.025329048 -0.073216558 -0.020120004
-0.022567043 -0.071435682 -0.023003217
0.022257475 -0.072649121 -0.023288427
0.025341101 -0.071339123 -0.020105321
-0.025233869 -0.067169778 -0.02023598
-0.022823164 -0.067355134 -0.022888077
0.022641011 -0.067632653 -0.023091068
0.025227947 -0.067607075 -0.020243192
-0.025218813 -0.062709719 -0.020254323
-0.022502055 -0.06209584 -0.023036854
0.022482328 -0.062477067 -0.022984497
0.025256485 -0.062330414 -0.02020842
-0.025249349 -0.057956416 -0.020217121
-0.022318499 -0.057152428 -0.022488458
-0.017676713 -0.05649998 -0.022383386
-0.012757272 -0.056499973 -0.022332335
-0.0072814482 -0.05649998 -0.022656143
-0.0025900314 -0.056499984 -0.022385079
0.0026173554 -0.056499977 -0.022553539
0.0075582233 -0.056499973 -0.022832179
0.012550241 -0.056636434 -0.022128299
0.017739523 -0.056499973 -0.022572134
0.02258461 -0.056654587 -0.022427272
0.02516184 -0.056646198 -0.020323738
-0.025193382 -0.052816994 -0.02028531
-0.023003183 -0.052475873 -0.022742387
0.023092452 -0.052367184 -0.022647498
0.025252439 -0.052985035 -0.020213354
-0.025178686 -0.047866605 -0.020303216
-0.022969447 -0.047371633 -0.022772631
0.022832232 -0.048052572 -0.022914549
0.025260441 -0.047575284 -0.020203602
-0.025172835 -0.042855073 -0.02031035
-0.022914423 -0.04225558 -0.022820748
0.022764245 -0.042390864 -0.022983951
0.025229931 -0.041775946 -0.02024078
-0.025241544 -0.037245423 -0.020226624
-0.023044117 -0.037433926 -0.02272488
0.022616306 -0.037693631 -0.022663616
0.025235053 -0.037694495 -0.020234536
-0.025248976 -0.032897636 -0.020217568
-0.022724992 -0.032534923 -0.02304123
0.022991233 -0.032269329 -0.022749579
0.025171407 -0.03098058 -0.020312084
-0.025296882 -0.027706053 -0.0201592
-0.022652788 -0.027331131 -0.023108479
0.022813747 -0.027796155 -0.022940107
0.025169548 -0.027100848 -0.020314351
-0.025252948 -0.022459619 -0.020212734
-0.022818895 -0.022342851 -0.022934256
0.023132248 -0.022558954 -0.022595201
0.02518866 -0.022756381 -0.020291064
-0.02523084 -0.017819669 -0.020239666
-0.022760894 -0.017515989 -0.022967804
0.022988109 -0.017651666 -0.022761622
0.025199261 -0.017230533 -0.020278145
-0.025275622 -0.012008443 -0.020185106
-0.023045802 -0.012552962 -0.022673037
0.022493208 -0.013287367 -0.023056084
0.023736659 -0.011127634 -0.021441838
-0.025266564 -0.0077312458 -0.02019614
-0.022548348 -0.0072839065 -0.022670224
-0.017440218 -0.0076980116 -0.02283862
-0.012659145 -0.0070836628 -0.022348046
-0.0069707618 -0.0065000029 -0.022416471
-0.0022682492 -0.0065242616 -0.022768386
0.0024466126 -0.0065000034 -0.02250986
0.0074460292 -0.0065000025 -0.022474239
0.012542586 -0.0065000029 -0.022751544
0.017162642 -0.0065000029 -0.022765115
0.022703109 -0.0071083149 -0.022512849
0.025206054 -0.0060707852 -0.020269865
-0.025260692 -0.0035961259 -0.020203296
-0.022426909 -0.0017222353 -0.022879712
0.022627959 -0.0020352337 -0.022858595
0.02520426 -0.0026596317 -0.020272054
-0.023661846 -0.0041582016 -0.021470768
-0.022977658 0.0022806232 -0.022778718
0.02264042 0.0023986516 -0.023080882
0.025163986 0.0021413628 -0.020321127
-0.025202526 0.0070950044 -0.02027417
-0.022281563 0.0061289319 -0.023101691
0.023085034 0.0074977828 -0.022655325
0.025330326 0.0073005976 -0.020118451
-0.012074049 0.014831583 -0.023298604
-0.022412831 0.012609582 -0.022959258
0.022802534 0.012371002 -0.022917174
0.025160844 0.012964716 -0.020324957
-0.025332937 0.017536333 -0.020115267
-0.023019463 0.01757282 -0.022729035
0.02300011 0.017629256 -0.022731105
0.025284519 0.017466694 -0.020174265
-0.025202719 0.023031993 -0.020273931
-0.022764243 0.022216244 -0.022972299
0.022838112 0.022674819 -0.022894612
0.025211623 0.022857163 -0.020263081
-0.025054684 0.028344497 -0.020014036
-0.022529213 0.027566895 -0.022919266
-0.019931015 0.029264037 -0.024729174
0.019476542 0.029689992 -0.024920121
0.021974886 0.027088434 -0.02309888
0.025239248 0.02711295 -0.02010446
-0.021692017 0.031903185 -0.022034185
-0.018877838 0.032128021 -0.024367802
0.019036515 0.032920178 -0.023899022
0.021518648 0.032291662 -0.022008849
-0.020835796 0.036602173 -0.020753572
-0.01764461 0.036583588 -0.02309371
-0.014347218 0.039089784 -0.024598772
0.01403888 0.039063353 -0.024774428
0.017771646 0.038007986 -0.022701006
0.020741656 0.036627688 -0.020854108
-0.016882081 0.042215135 -0.021483587
-0.013091799 0.042641748 -0.023805553
-0.009086147 0.044572055 -0.024898788
0.012867163 0.042850431 -0.023839524
0.01606098 0.040002361 -0.021563493
-0.015666135 0.045837965 -0.020783192
-0.012190273 0.046061084 -0.022352263
-0.007839499 0.047718 -0.024118338
-0.0031550906 0.049009405 -0.024733672
0.0026115037 0.049228668 -0.024719058
0.0075115552 0.045779686 -0.024214089
0.012801949 0.04764409 -0.021912858
0.015950564 0.046105899 -0.020426206
-0.011794456 0.052121423 -0.020845028
-0.0073336023 0.05033458 -0.022450121
-0.0024373566 0.052736118 -0.023626214
0.0025147521 0.052728552 -0.023620905
0.0073405849 0.052305114 -0.022723041
0.011566791 0.052285399 -0.020910641
-0.010182885 0.056654789 -0.020093013
-0.0073292004 0.057305541 -0.021054216
-0.002069094 0.052100826 -0.022050422
0.0026092399 0.056420904 -0.022218395
0.0071702916 0.056843173 -0.021262227
0.010371814 0.055322681 -0.020467147
-0.0056739761 0.060880881 -0.020309487
-0.002405725 0.061801981 -0.020617034
0.0022844905 0.061903231 -0.020589484
0.0061043962 0.060677521 -0.020252762
-0.026750183 -0.096788183 -0.017363101
-0.022681143 -0.097500004 -0.017386258
-0.01762444 -0.097499952 -0.01754074
-0.011171096 -0.093724966 -0.017767314
-0.007139992 -0.097500004 -0.017701089
-0.00228247 -0.097499967 -0.018038485
0.0025533128 -0.097499996 -0.017264927
0.0076926383 -0.097500004 -0.017109238
0.012104871 -0.097499967 -0.017319668
0.017482091 -0.097499989 -0.017456649
0.022640055 -0.097500034 -0.01791247
0.027136063 -0.096703902 -0.017227391
-0.026444079 -0.092212282 -0.017627068
0.02725691 -0.092251524 -0.017398668
-0.027123628 -0.087466277 -0.017666504
0.026919281 -0.086674169 -0.017669156
-0.027035456 -0.082725585 -0.017754029
0.027108647 -0.082547016 -0.017643793
-0.026678951 -0.074850455 -0.017316675
0.026730252 -0.077351958 -0.017618844
-0.026890421 -0.071500577 -0.017857097
0.027153425 -0.07281369 -0.017576346
-0.027197344 -0.067380287 -0.017523449
0.027102089 -0.067355514 -0.017680677
-0.027117258 -0.062556006 -0.017677246
0.026821874 -0.061021641 -0.017916325
-0.026963755 -0.057057418 -0.017451758
-0.022605866 -0.056499977 -0.017638337
-0.017591264 -0.05649998 -0.017619643
-0.01259259 -0.05649998 -0.01754877
-0.0071984115 -0.056499977 -0.017739229
-0.0021693595 -0.056499969 -0.0175448
0.0027431226 -0.056598864 -0.017748255
0.0071409652 -0.056499977 -0.017487619
0.012563045 -0.056499973 -0.017612774
0.017285571 -0.05649998 -0.017628873
0.022701463 -0.056499984 -0.017594015
0.027146986 -0.057200085 -0.017289322
-0.02715162 -0.05290908 -0.017501364
0.026806518 -0.05269039 -0.017675482
-0.026334582 -0.046837155 -0.017781148
0.027231809 -0.047606844 -0.017456895
-0.027186317 -0.041985225 -0.017533777
0.027247967 -0.042398129 -0.017434146
-0.027264925 -0.037834268 -0.0174226
0.026427023 -0.037182599 -0.017668318
-0.026352359 -0.03288471 -0.017853282
0.027105791 -0.032716382 -0.017671248
-0.027171925 -0.027429583 -0.017595995
0.02737245 -0.027498381 -0.017251937
-0.027041402 -0.022359151 -0.01760722
0.027358616 -0.022573348 -0.017276227
-0.027465526 -0.017762419 -0.017071301
0.027047858 -0.017559325 -0.017745513
-0.027092874 -0.012533137 -0.017685102
0.02692914 -0.012609455 -0.017932177
-0.026696099 -0.0080652395 -0.017518498
-0.022522142 -0.0065000034 -0.017586002
-0.016666701 -0.0079339808 -0.017548434
-0.012604618 -0.0065000029 -0.017590523
-0.0067571588 -0.007037825 -0.017409516
-0.0026923008 -0.0065000034 -0.017479947
0.0025076552 -0.0065000029 -0.017276876
0.0073398612 -0.0080689676 -0.017461305
0.012283259 -0.0079444479 -0.017152751
0.017173408 -0.0065000025 -0.017343557
0.022297693 -0.0065000034 -0.017557334
0.026967132 -0.0072075892 -0.01739382
-0.026838064 -0.0032534231 -0.017556578
0.026821362 -0.0022989414 -0.017932544
-0.026191825 0.0028729092 -0.017540433
0.027221015 0.0025479565 -0.017489046
-0.02702442 0.0076468466 -0.017773788
0.026841382 0.005521867 -0.017399935
-0.027131755 0.012461352 -0.017651256
0.027166549 0.012664726 -0.017568912
-0.026944354 0.01708162 -0.017870784
0.027228305 0.017526111 -0.017426664
-0.026952656 0.021256603 -0.017832497
0.027411832 0.021771019 -0.017160963
-0.025705969 0.024871113 -0.017366892
-0.024622079 0.029821811 -0.019770972
0.026917323 0.027267495 -0.017672978
-0.02613903 0.031878699 -0.016541623
-0.024147678 0.032760192 -0.018816885
0.02411606 0.032823909 -0.018821709
0.026146162 0.03193121 -0.016516471
-0.025289726 0.035933673 -0.015379789
-0.023095815 0.036351755 -0.01753792
0.022892563 0.037510268 -0.017816683
0.025351919 0.035852894 -0.01532021
-0.021475555 0.042404115 -0.01678196
-0.01896406 0.043737058 -0.018955804
0.019091235 0.043490581 -0.018975897
0.021594191 0.042099379 -0.016812406
-0.019171664 0.046407156 -0.016681567
-0.017940266 0.047789168 -0.017826907
0.014774491 0.049717136 -0.019831013
0.018147506 0.047735088 -0.017651221
0.020564817 0.046354938 -0.015637191
-0.016894218 0.052599441 -0.016757259
-0.014097128 0.053052891 -0.019021491
0.014043093 0.052926004 -0.019114057
0.016522009 0.052240696 -0.017031237
-0.015905652 0.056669746 -0.015979676
-0.012207027 0.05563698 -0.018523093
-0.0095500341 0.058649041 -0.019677948
0.008828898 0.059156876 -0.019863566
0.012632772 0.056832809 -0.018273272
0.015961125 0.056888595 -0.015843248
-0.012092168 0.062386174 -0.016595425
-0.0078536961 0.063112631 -0.018694794
-0.0026492376 0.064062372 -0.019787166
0.0033049702 0.064231761 -0.019639915
0.0082643889 0.060551837 -0.018933477
0.012092909 0.061156143 -0.016702957
0.015053589 0.060662836 -0.015007883
-0.011405939 0.062159438 -0.016074762
-0.007450005 0.065099999 -0.017185446
-0.0020560508 0.065850973 -0.018614195
0.0025453805 0.067781255 -0.018405184
0.0068971282 0.066102959 -0.017574729
0.010972805 0.066665769 -0.01562223
-0.0066756108 0.071331337 -0.01567181
-0.0022034186 0.070058353 -0.016640125
0.0026262563 0.072183363 -0.016393859
0.0066525796 0.071447581 -0.015611112
-0.0013980819 0.075373307 -0.015100182
0.0014664782 0.075252034 -0.015149518
-0.029172717 -0.094374463 -0.012278418
-0.027853264 -0.097191788 -0.012775637
-0.022622708 -0.097500019 -0.012461396
-0.017567309 -0.097499989 -0.012655343
-0.011357876 -0.094437942 -0.012834679
-0.0073351702 -0.097499996 -0.012561276
-0.0025156292 -0.097499967 -0.012212042
0.0027010879 -0.097499996 -0.01206946
0.0077010449 -0.097500019 -0.012600108
0.012599066 -0.096066631 -0.012785478
0.017636001 -0.097499989 -0.012304733
0.022272304 -0.097499982 -0.012729834
0.028077418 -0.097025007 -0.013148054
0.03032727 -0.0963751 -0.011130007
-0.030373165 -0.092120975 -0.011292862
-0.029321261 -0.092442691 -0.01375566
0.029343151 -0.092487261 -0.013714704
0.028580047 -0.090436161 -0.011486605
-0.030475311 -0.087291397 -0.010955906
-0.029337838 -0.087601066 -0.013724643
0.028782487 -0.084585205 -0.014349803
0.030431418 -0.086912133 -0.011100891
-0.030432228 -0.082760721 -0.011097394
-0.029261097 -0.082342558 -0.013868229
0.029288894 -0.082421295 -0.013816223
0.030331876 -0.082236312 -0.011425875
-0.030353967 -0.077601135 -0.0113547
-0.027632052 -0.074740544 -0.015026174
0.029286226 -0.077487975 -0.01382121
0.030349569 -0.077753127 -0.011370154
-0.030424865 -0.072572894 -0.011122121
-0.029396702 -0.072763972 -0.013614508
0.025690848 -0.064565673 -0.015646776
0.030393239 -0.07243643 -0.011226043
-0.030360082 -0.06792964 -0.011335091
-0.029238455 -0.067421347 -0.013910603
0.029324533 -0.067585997 -0.013749541
0.030478328 -0.067592524 -0.010946274
-0.03019404 -0.06088566 -0.011636075
-0.02938346 -0.062025633 -0.013639282
0.028557474 -0.06200387 -0.014014577
0.030377416 -0.062415771 -0.011278003
-0.030384278 -0.05726967 -0.011234138
-0.02820443 -0.056961257 -0.013012509
-0.022753578 -0.056499973 -0.012554267
-0.016215449 -0.055875093 -0.012731246
-0.013083492 -0.056799989 -0.012563413
-0.0072947154 -0.056499984 -0.012217979
-0.0021198178 -0.053903259 -0.012604618
0.0026777412 -0.056499977 -0.012515157
0.0074496255 -0.056499977 -0.01278961
0.012366438 -0.056499977 -0.012565879
0.01716841 -0.057117999 -0.012958054
0.021754734 -0.057252727 -0.01241527
0.028064681 -0.056829516 -0.013139577
0.030354468 -0.057576973 -0.011232365
-0.030104106 -0.051805936 -0.011817654
-0.029373534 -0.052287355 -0.013657841
0.029351423 -0.052585516 -0.013699228
0.030375125 -0.052405693 -0.011285005
-0.030424129 -0.047888424 -0.011124915
-0.029352264 -0.047213059 -0.013697642
0.029406728 -0.047369469 -0.013595743
0.03036459 -0.047872983 -0.0113197
-0.029240282 -0.044968501 -0.011868575
-0.029435698 -0.042267416 -0.013541524
0.029472958 -0.042123102 -0.013471816
0.030409485 -0.042586714 -0.011173162
-0.030357037 -0.037779499 -0.01134436
-0.02937402 -0.037428416 -0.013656935
0.029392412 -0.037835538 -0.013622528
0.02903267 -0.034147561 -0.011953235
-0.030462783 -0.032454845 -0.010997514
-0.029422013 -0.032394398 -0.013567147
0.027739163 -0.033224527 -0.014204761
0.030331865 -0.033043899 -0.011428977
-0.030309742 -0.027856512 -0.011501892
-0.029395791 -0.027800895 -0.013616203
0.029295417 -0.027444847 -0.013804014
0.030400805 -0.027502336 -0.011200859
-0.030386711 -0.022341615 -0.011247399
-0.027168171 -0.023304794 -0.013708806
0.029309025 -0.022875259 -0.013778555
0.030403761 -0.022276834 -0.011192033
-0.030385619 -0.017695863 -0.011251809
-0.029230088 -0.01745319 -0.013926257
0.02923202 -0.017563203 -0.013922638
0.030389797 -0.017407216 -0.011237055
-0.029390847 -0.012244354 -0.011779643
-0.028313274 -0.011969555 -0.013925215
0.029200273 -0.012074144 -0.013982045
0.030352855 -0.012515408 -0.011359772
-0.030167513 -0.0082961256 -0.01156237
-0.027995296 -0.0068561756 -0.012974511
-0.02168286 -0.0073089483 -0.012444956
-0.016872702 -0.0062802015 -0.012850429
-0.01258317 -0.0065000029 -0.012629483
-0.0075351982 -0.0065000034 -0.012589151
-0.0024852152 -0.0065000029 -0.012726291
0.0025343543 -0.0065000039 -0.012408296
0.0074482206 -0.0065000039 -0.012742504
0.012893822 -0.0058137313 -0.012776206
0.017250128 -0.0064033526 -0.013057801
0.022373032 -0.0070528626 -0.012244772
0.028205458 -0.0071243108 -0.013152184
0.030340951 -0.0075176363 -0.011389755
-0.030348796 -0.0024321182 -0.011373178
-0.027986415 -0.00083770265 -0.013753233
0.029278934 -0.0023860359 -0.013834862
0.03006475 -0.0029743761 -0.011547901
-0.030419134 0.0026619309 -0.011141363
-0.029294539 0.0026474807 -0.013805656
0.029312795 0.0023079221 -0.013771513
0.030333014 0.00247162 -0.011424953
-0.028898211 0.0080236234 -0.01164682
-0.029285911 0.0076233982 -0.013821809
0.029410413 0.0081034731 -0.013588843
0.030254679 0.0053191832 -0.011425057
-0.030377565 0.01287897 -0.011277356
-0.029472377 0.012547093 -0.013472906
0.029024305 0.011756558 -0.014267378
0.030334938 0.012259849 -0.011417004
-0.028615741 0.015317582 -0.011122601
-0.02916575 0.01676148 -0.014046635
0.029326035 0.017675236 -0.013746731
0.028448053 0.013671904 -0.011290321
-0.030304084 0.022646328 -0.011520528
-0.029534314 0.02227284 -0.013357018
0.027363731 0.02145029 -0.013705616
0.030433856 0.022659807 -0.011092586
-0.030396217 0.026678627 -0.011009027
-0.029107582 0.027565332 -0.013689667
0.029157043 0.027749311 -0.013516122
0.030314645 0.026602294 -0.011268776
-0.027065711 0.03190485 -0.012656448
0.027986579 0.032864001 -0.012327993
-0.026382124 0.037322812 -0.012255775
-0.024579262 0.03910603 -0.014371107
0.024579544 0.039143283 -0.014341932
0.02553729 0.034739505 -0.012797753
-0.025461702 0.041166496 -0.01108984
-0.023802571 0.043022197 -0.012803187
0.023683477 0.042714961 -0.013262808
0.025441328 0.04143599 -0.010912152
-0.021382466 0.04765597 -0.012684872
-0.019871142 0.049709588 -0.014729075
0.019918086 0.049073756 -0.014987344
0.022227965 0.045706473 -0.012573262
-0.020512234 0.048830565 -0.012252508
-0.01918621 0.053012557 -0.013892926
0.019226359 0.053027209 -0.013837291
0.020663345 0.050190888 -0.012008383
-0.020452704 0.055207532 -0.010475678
-0.01827693 0.057308592 -0.012713225
0.018085012 0.05752331 -0.012862937
0.020188615 0.055677302 -0.010656143
-0.016573371 0.059846021 -0.011961329
-0.014240132 0.063704252 -0.014256891
0.014407737 0.063294083 -0.014277642
0.016564684 0.062397286 -0.012129349
-0.015751256 0.066636428 -0.01083729
-0.013015909 0.067886271 -0.013183684
0.0094560701 0.069898419 -0.014996234
0.01339052 0.067888059 -0.012796113
0.015676646 0.066338316 -0.011104998
-0.011189669 0.068695612 -0.011838236
-0.0082608396 0.073083028 -0.013936794
0.0040497701 0.074739918 -0.014922847
0.0084572723 0.072928987 -0.013900232
0.011811932 0.07207559 -0.011716008
-0.010294004 0.076636866 -0.010608553
-0.0076453853 0.077268064 -0.012257325
-0.0027390809 0.074972987 -0.014247099
0.0024860217 0.077453099 -0.014172453
0.0079372404 0.074614264 -0.012211657
0.010647177 0.076269381 -0.010330079
-0.010075603 0.082536012 -0.010078679
-0.0078610629 0.081222638 -0.011991542
-0.0025662882 0.082412325 -0.013898127
0.0023287414 0.082408771 -0.013939593
0.0078468984 0.082667857 -0.011704293
0.01005909 0.082506433 -0.010096909
-0.010044361 0.087830231 -0.010109255
-0.0076810867 0.087418795 -0.011828134
-0.0024842487 0.087806322 -0.01389859
0.0026884098 0.087625965 -0.013866453
0.0077390717 0.087649092 -0.011809053
0.010108531 0.087814465 -0.010042721
-0.010111785 0.092763536 -0.010040293
-0.0076286974 0.092715442 -0.011856539
-0.0026996401 0.092356361 -0.013879724
0.0023074169 0.090922818 -0.014163161
0.007322263 0.090355963 -0.012164619
0.010010169 0.091383301 -0.010137321
-0.007290496 0.096698247 -0.011530773
-0.0024547128 0.097143933 -0.012611625
0.0024121609 0.097188532 -0.012479073
0.0073506222 0.096771978 -0.011575079
0.010113834 0.096728317 -0.010035965
-0.02932135 -0.093232214 -0.0076614539
-0.027609643 -0.097499982 -0.0075418362
-0.022641519 -0.097500019 -0.0073432429
-0.017527081 -0.097499974 -0.0073286253
-0.012328329 -0.097499967 -0.0075855553
-0.0076647033 -0.097499959 -0.0074693789
-0.0023112851 -0.097500004 -0.0077608498
0.0022953791 -0.097499982 -0.0074177291
0.0077706394 -0.097499959 -0.0075852531
0.012533481 -0.097499982 -0.0075374837
0.017583994 -0.097499989 -0.0072754864
0.022410758 -0.096890055 -0.0077038216
0.026043113 -0.096349329 -0.007794702
0.031333696 -0.096648239 -0.0074123992
-0.031326875 -0.090381674 -0.0075018513
0.030248966 -0.091471933 -0.0081762122
-0.030217716 -0.086151123 -0.0078129172
0.031483162 -0.087182887 -0.0075444481
-0.030817591 -0.082597367 -0.0081315953
0.03105437 -0.079634346 -0.0081222607
-0.030736353 -0.078114957 -0.0073769614
0.031481035 -0.077227399 -0.0075512533
-0.031456593 -0.072351031 -0.0076053706
0.03142349 -0.072524264 -0.0077628116
-0.031514708 -0.06740655 -0.0074194479
0.031468246 -0.067338355 -0.007580936
-0.031492744 -0.062393334 -0.0074973898
0.031429909 -0.062666647 -0.0077090063
-0.030510716 -0.054908894 -0.0077862353
-0.02766671 -0.056499973 -0.0075536184
-0.021816928 -0.056344636 -0.0077502658
-0.0160756 -0.056584649 -0.0076754573
-0.012838266 -0.056499977 -0.00770638
-0.007933164 -0.055252261 -0.0075588385
-0.0026090562 -0.056512956 -0.0078026932
0.0020379731 -0.056890327 -0.0077661225
0.0078352662 -0.055221654 -0.0079526072
0.012656067 -0.056499973 -0.0074668326
0.017609134 -0.056499977 -0.0076599144
0.021578511 -0.053943347 -0.0078811152
0.027593277 -0.056499977 -0.007433394
0.031403851 -0.057157062 -0.0070235487
-0.030163091 -0.051428564 -0.0080488417
0.031484094 -0.052449986 -0.0075464919
-0.03145726 -0.047637768 -0.0076531051
0.03148853 -0.047358699 -0.0075057936
-0.031490825 -0.04213991 -0.0074243303
0.029333191 -0.041085616 -0.008192298
-0.031385083 -0.037570603 -0.0078635365
0.031342603 -0.034914795 -0.0077144178
-0.031561043 -0.032262623 -0.0072023403
0.031462342 -0.032550775 -0.0076426971
-0.031437445 -0.027551772 -0.0076694093
0.031498682 -0.027404156 -0.0074646315
-0.031459935 -0.02274143 -0.0076110563
0.031393342 -0.022488805 -0.0078573739
-0.030501971 -0.018530173 -0.0075007924
0.031547632 -0.017199902 -0.0072794422
-0.031487342 -0.012469208 -0.0075157243
0.03139605 -0.012194123 -0.0078587877
-0.030569866 -0.0077372105 -0.0076607694
-0.027611876 -0.0065000029 -0.0074040997
-0.022664331 -0.0065000025 -0.0076804659
-0.017516563 -0.0065000025 -0.0074469065
-0.012447314 -0.0060608997 -0.0080838269
-0.007113826 -0.0082656182 -0.0079246601
-0.0027068185 -0.0065000039 -0.0074723829
0.0024217297 -0.0065000025 -0.0079761054
0.0078582335 -0.0065000029 -0.0073492886
0.012545635 -0.0065000034 -0.0074905083
0.017605454 -0.0065000011 -0.0078248503
0.021448217 -0.0073461644 -0.0077357823
0.027761886 -0.0065000025 -0.0074148909
0.031261582 -0.0076787081 -0.0076267226
-0.031479418 -0.0023181674 -0.0075622401
0.030615836 -0.0017736205 -0.0077450434
-0.030840322 0.0029455801 -0.0074924314
0.031397063 0.0024392125 -0.0078573916
-0.031501945 0.0077320999 -0.0074710059
0.031440809 0.0076780263 -0.0076684365
-0.031453002 0.012628227 -0.007644054
0.030470323 0.011343044 -0.0078461198
-0.031429786 0.017410541 -0.0077131749
0.031462088 0.017547546 -0.0075440081
-0.031420998 0.020838566 -0.0077496679
0.03144373 0.022554809 -0.0076428512
-0.031192699 0.027719522 -0.0076583507
0.031311747 0.027039595 -0.0077040438
-0.028145162 0.030011291 -0.0065124487
-0.029275101 0.033241317 -0.0083678141
0.029407702 0.033044282 -0.0081534674
0.028420454 0.029940892 -0.0067858812
-0.027973516 0.037655018 -0.0074916575
0.027932467 0.037618484 -0.0077173919
-0.02637131 0.042077705 -0.0073475256
0.024851939 0.044494987 -0.0093371738
0.026231879 0.042339988 -0.0074790362
-0.025154119 0.046141155 -0.0062786499
-0.02414027 0.047726542 -0.0077500851
0.024033885 0.047893614 -0.0079056602
0.025364809 0.031822558 -0.0078108469
-0.02260888 0.052300926 -0.0076985811
0.022728663 0.052338067 -0.0072852136
-0.021023255 0.057737369 -0.0069625042
-0.019563714 0.059141878 -0.0094010308
0.019733708 0.058871858 -0.0092817191
0.021022338 0.057465348 -0.0072452025
-0.020271471 0.060361993 -0.0064196796
-0.019170128 0.060857497 -0.0077881888
0.017956953 0.062260728 -0.007787663
0.02030297 0.060805373 -0.0057856943
-0.017196501 0.067474939 -0.0073637119
0.017446572 0.065965958 -0.0072275936
-0.015687359 0.071369879 -0.006559012
-0.013938947 0.07310494 -0.0082030036
0.014156644 0.073091768 -0.0078508491
0.015571319 0.071511999 -0.0066644945
-0.011637411 0.074715011 -0.0081000384
0.012308044 0.077304594 -0.0075564659
-0.011664129 0.081284568 -0.0078614587
0.011980106 0.082567014 -0.0074669821
-0.011021862 0.083200313 -0.0078563876
0.012014694 0.087406576 -0.0074164951
-0.011942578 0.09239772 -0.0075213346
0.011367231 0.091860682 -0.0078862002
-0.011543343 0.09467762 -0.0070306775
-0.0074214777 0.097500004 -0.0074245054
-0.0026079777 0.097499989 -0.0077231168
0.0028918183 0.097500004 -0.0077604866
0.0074761957 0.097499974 -0.0077378219
0.011662655 0.096609712 -0.0073926244
-0.031760931 -0.096954547 -0.0023146519
-0.027627625 -0.097499989 -0.0024635959
-0.02186035 -0.096751407 -0.002867599
-0.017700911 -0.097499982 -0.0025931161
-0.012628432 -0.094830103 -0.0026194796
-0.0078278305 -0.097499967 -0.0022640959
-0.0022209475 -0.096827082 -0.0024580592
0.0021450056 -0.097499937 -0.0020485618
0.0072822059 -0.097488202 -0.0028035026
0.012459255 -0.095029645 -0.0030164071
0.017561892 -0.094476178 -0.0032031452
0.022665655 -0.097499989 -0.002634696
0.026942348 -0.095749997 -0.0028408635
0.031603273 -0.097016186 -0.0025658989
-0.03224748 -0.09280844 -0.0024638085
0.031824537 -0.091368347 -0.003105269
-0.03151292 -0.084508508 -0.002619894
0.032241628 -0.087383486 -0.0026251215
-0.030572012 -0.08251632 -0.0030400953
0.03005868 -0.080097228 -0.0031485367
-0.032230463 -0.077823281 -0.0027385848
0.032167926 -0.076677263 -0.0028118887
-0.032254659 -0.072675966 -0.0024927561
0.031303555 -0.072258718 -0.0033633101
-0.032246236 -0.067476101 -0.002578313
0.031013556 -0.065425441 -0.0029155852
-0.031498462 -0.061141632 -0.0025813279
0.032033697 -0.062239815 -0.0026136469
-0.031554651 -0.056540553 -0.0027670376
-0.027487781 -0.056499977 -0.0027645805
-0.021673549 -0.055680301 -0.0026991814
-0.017610835 -0.056499973 -0.0029945234
-0.012550266 -0.056499977 -0.0027392118
-0.0074116779 -0.056499977 -0.0023428414
-0.0020193029 -0.054682609 -0.0031389012
0.0022270477 -0.056499969 -0.0027422868
0.0071537085 -0.056499973 -0.0023633435
0.012501792 -0.05649998 -0.0024526357
0.017509118 -0.056499977 -0.0024341815
0.022579512 -0.056499977 -0.0025223279
0.026605731 -0.055432227 -0.0030339435
0.0319915 -0.057107665 -0.002291193
-0.032125287 -0.052892923 -0.0026227231
0.032253075 -0.052645545 -0.0025088536
-0.032249924 -0.047353979 -0.0025408624
0.031927906 -0.046031799 -0.0028699362
-0.032217834 -0.042777751 -0.002866846
0.032253765 -0.042792328 -0.0025018989
-0.031367172 -0.036423564 -0.0026645099
0.032257892 -0.03744201 -0.0024599708
-0.031388603 -0.032044616 -0.0024598306
0.032249466 -0.032587264 -0.0025454513
-0.032255776 -0.027428789 -0.0024813409
0.032277077 -0.027434619 -0.0022650266
-0.032242257 -0.022216536 -0.0026187256
0.032222606 -0.022197288 -0.0028183502
-0.032155436 -0.016562754 -0.0026858712
0.032301236 -0.017533118 -0.0020195146
-0.030364575 -0.013626936 -0.0032631874
0.032247778 -0.012470203 -0.0025625925
-0.031308014 -0.0077828909 -0.0023996304
-0.026881702 -0.0062522464 -0.0029505414
-0.022547197 -0.0065000034 -0.002137491
-0.017531265 -0.0065000029 -0.0026442339
-0.012256656 -0.0065000029 -0.0024852327
-0.0080569526 -0.0065874406 -0.0026837119
-0.0021983967 -0.0065000029 -0.0026702243
0.0027970327 -0.008897529 -0.0027991207
0.0066063092 -0.0067576515 -0.0027351866
0.012464236 -0.0065000025 -0.0025137963
0.017308367 -0.0065000034 -0.0024175742
0.022801828 -0.0063398588 -0.0028604236
0.027747137 -0.0065000025 -0.0022367772
0.031287417 -0.0068700057 -0.0031474545
-0.032239161 -0.002654063 -0.0026501592
0.032249771 -0.0024606378 -0.0025423919
-0.032230884 0.0023884908 -0.0027342199
0.032250449 0.0023528866 -0.002535562
-0.032245621 0.007227886 -0.0025846227
0.032278135 0.0074610733 -0.0022542244
-0.03193257 0.012526891 -0.0032655976
0.032273639 0.012560059 -0.0022998196
-0.030687099 0.01482916 -0.003440937
0.031172767 0.018131761 -0.0024301591
-0.03123519 0.020860516 -0.0026517469
0.031947587 0.021463573 -0.0030113282
-0.031475108 0.025612311 -0.0026260237
0.031787485 0.027901506 -0.0024995806
-0.030213863 0.030064557 -0.0026993551
-0.029859349 0.034371477 -0.0036241924
0.029805528 0.034677878 -0.0031354539
0.030853156 0.03172892 -0.002450241
-0.027989605 0.035702046 -0.003616367
0.028674234 0.035924651 -0.0028162224
-0.027052209 0.042609271 -0.0026117433
0.026504204 0.042562794 -0.0029098317
-0.025532091 0.046836127 -0.0024373657
-0.024750153 0.049168915 -0.0024747485
0.024644399 0.049419209 -0.0027576066
0.025329519 0.044350676 -0.0028038046
-0.019662084 0.043735247 -0.0044700257
0.02329291 0.050254535 -0.0028156792
-0.022092994 0.057428196 -0.0027185567
0.02162347 0.057278916 -0.0027484314
-0.02052827 0.062054172 -0.0023447732
-0.019710055 0.063999087 -0.0035055627
0.019617075 0.064270332 -0.0033934005
0.020004814 0.057925165 -0.0025073008
-0.017744945 0.065134838 -0.0031770542
0.018543765 0.067415409 -0.0025549871
-0.016177265 0.072564289 -0.0028272574
-0.014805358 0.074500069 -0.0048172679
0.014897843 0.074560568 -0.0044163954
0.016344583 0.072340645 -0.002433846
-0.015094949 0.075400807 -0.0013223971
-0.014448287 0.076141104 -0.0028914311
0.014089283 0.077626877 -0.0026433731
0.015192449 0.075103447 -0.0017275729
-0.013948469 0.082355008 -0.002342494
0.013922296 0.082041666 -0.0024802061
-0.013943119 0.087332755 -0.0023574894
0.013897202 0.087452844 -0.0025371828
-0.013566451 0.089382827 -0.0027787196
0.013261292 0.090887986 -0.0027416376
-0.012528815 0.094317153 -0.0026330084
-0.00779599 0.097500004 -0.0023251211
-0.0019488847 0.093768582 -0.0026868468
0.0021192254 0.096744761 -0.0026649525
0.0075811017 0.096753091 -0.0028466892
0.012782513 0.097083971 -0.0022905166
-0.031210292 -0.094324857 0.0020147453
-0.027397661 -0.097499996 0.0022321891
-0.02216123 -0.097499967 0.0022249937
-0.017339768 -0.097499996 0.0028023892
-0.012323845 -0.095595069 0.0019057865
-0.0075258114 -0.097499982 0.0025069991
-0.0019954925 -0.096486919 0.0016759691
0.0022744574 -0.097499952 0.0020136661
0.0074476865 -0.097500004 0.0021384198
0.012491485 -0.097499967 0.0023097526
0.017683424 -0.097500011 0.0025086622
0.022697775 -0.097499959 0.0024424549
0.027634839 -0.097499967 0.0024130885
0.031617872 -0.094401971 0.0019259439
-0.032244764 -0.092189617 0.0025932216
0.030881545 -0.088309124 0.0016137382
-0.032233037 -0.087522253 0.0027123736
0.030425493 -0.082238264 0.001690336
-0.03171359 -0.081617028 0.0024921335
0.031269576 -0.079958491 0.0021095069
-0.031221058 -0.075043537 0.0021312907
0.031839956 -0.075879678 0.0017184359
-0.032284841 -0.072409995 0.0021860544
0.032247923 -0.072656199 0.0025612288
-0.032253474 -0.06742312 0.0025047886
0.031356543 -0.067974202 0.0016821596
-0.03105391 -0.061485361 0.0024627019
0.032263871 -0.062483437 0.0023991494
-0.031177176 -0.055998467 0.0022758229
-0.026554266 -0.056499977 0.0024752982
-0.022550821 -0.056499973 0.002571193
-0.017360548 -0.056499977 0.0024182391
-0.012752369 -0.056217443 0.0024178727
-0.0076634274 -0.056499973 0.0024698351
-0.0023723072 -0.055617981 0.002393622
0.0024799446 -0.056499977 0.0023672483
0.0073036272 -0.056499977 0.0024554781
0.011668168 -0.055516157 0.0018801872
0.016641596 -0.052249048 0.0021098908
0.022315046 -0.056499984 0.0024440268
0.027482184 -0.056499977 0.0026908016
0.030622454 -0.056455787 0.0019290567
-0.032270677 -0.052216958 0.002329869
0.02953426 -0.052433208 0.0010689886
-0.032231949 -0.047662403 0.0027234911
0.032246802 -0.047495492 0.0025725572
-0.032225288 -0.042762812 0.0027911661
0.03221881 -0.042702902 0.0028569249
-0.032277714 -0.037280861 0.0022585203
0.031207539 -0.03653447 0.0022903816
-0.032252632 -0.032790095 0.0025133216
0.032242697 -0.032386754 0.0026142362
-0.030967487 -0.02650979 0.0017592148
0.030973198 -0.027563957 0.0019434766
-0.032256261 -0.022951582 0.0024764473
0.032268405 -0.02267337 0.0023530971
-0.032258328 -0.017594758 0.0024554138
0.031988833 -0.017480621 0.0016318182
-0.032215182 -0.012520878 0.0028938516
0.032205772 -0.012641663 0.0029895019
-0.031930104 -0.0074468884 0.0026117675
-0.027180234 -0.0065000034 0.0022632512
-0.022550384 -0.0066472935 0.0021938691
-0.017039141 -0.0067010596 0.0020842601
-0.012498427 -0.0065000025 0.002651959
-0.0075549302 -0.007347425 0.0020314059
-0.0022729661 -0.0082456367 0.0012775454
0.0022196735 -0.0077294479 0.002198701
0.0075101471 -0.0065000029 0.0024383783
0.012320695 -0.0065000025 0.0022954487
0.017805107 -0.0065000025 0.0021867538
0.02249537 -0.0065000034 0.002535163
0.026890267 -0.0057965554 0.001867753
0.031931456 -0.0072720447 0.0025240916
-0.032107696 -0.0026071044 0.0022751184
0.032247279 -0.002460171 0.002567688
-0.032256573 0.0022771736 0.0024056889
0.032179043 0.0029928584 0.0023151911
-0.031321514 0.006065771 0.0020634469
0.032232635 0.0077226292 0.0027165343
-0.031925455 0.013262484 0.0023727124
0.031971961 0.013131109 0.0018076948
-0.032258026 0.017426416 0.0024585158
0.031155571 0.016976936 0.0015486217
-0.032134797 0.020592153 0.0021813607
0.030368838 0.019378107 0.0014659915
-0.031715035 0.026697289 0.0014678811
0.032071229 0.027405905 0.0023834505
-0.030641796 0.032427289 0.0022391069
-0.028542701 0.026806626 0.0028377452
0.029879441 0.034283157 0.003718365
0.030745503 0.032075588 0.0023738849
-0.028898505 0.037573192 0.0023559874
0.028911918 0.037495468 0.0024694996
-0.026357684 0.040280946 0.0017148098
0.027131844 0.04243803 0.0024382868
-0.025653936 0.046507273 0.0024191432
-0.024645902 0.049251638 0.0032801582
0.021984382 0.047345381 0.0024703664
0.024844659 0.047262166 0.0019114448
-0.023661206 0.052575443 0.0025771689
0.023659455 0.049318004 0.0020586401
-0.020842662 0.055554871 0.0016398514
0.022028703 0.057738665 0.0023228992
-0.020599928 0.061698288 0.0027636243
-0.01971487 0.06411577 0.0029967378
0.019763222 0.063788451 0.0034843998
0.020493511 0.06213982 0.0024156072
-0.018459909 0.067528933 0.0028240287
0.018527709 0.067632504 0.0021025289
-0.01611406 0.072889909 0.0022740664
-0.014979587 0.074687809 0.0039452324
0.014820389 0.074875817 0.0041722213
0.016244207 0.072445914 0.0026748076
-0.015104866 0.075615615 0.00021405771
-0.014061095 0.077814668 0.0026292056
0.014282109 0.077319644 0.0022771999
0.015106399 0.075408638 0.0011695254
-0.013732606 0.080811635 0.0023286676
0.012623586 0.076982923 0.0016282685
-0.013909755 0.087418906 0.0024646274
0.013961631 0.087276682 0.0022651183
-0.013884421 0.092452064 0.0025852711
0.013414645 0.091764212 0.0016985417
-0.01197895 0.095132783 0.0022209226
-0.0072242632 0.093967512 0.0018496062
-0.0019664571 0.09532924 0.0025551859
0.002566936 0.097499989 0.0028431802
0.0073125158 0.095591687 0.0019863057
0.012214243 0.094731987 0.0018604028
-0.031144645 -0.096742466 0.0074424264
-0.027207777 -0.094350658 0.0073301857
-0.02261476 -0.09665034 0.0067854081
-0.01729759 -0.093812399 0.0067724399
-0.012449608 -0.097499967 0.0070735351
-0.0073653548 -0.095180251 0.0067336881
-0.0028151944 -0.095819853 0.0072402586
0.0024772401 -0.097499996 0.0074114609
0.007566737 -0.094581202 0.0073991106
0.012014325 -0.097499996 0.0074538048
0.01774629 -0.097499959 0.0074841557
0.022584425 -0.097500004 0.0073907478
0.02727033 -0.094068378 0.0064235283
0.030975627 -0.092426054 0.0065812152
-0.031362891 -0.092753507 0.0079327198
0.029284008 -0.09157066 0.0066582519
-0.031146307 -0.087336689 0.0071811606
0.031517878 -0.087750249 0.0074293399
-0.03143996 -0.082405157 0.0076682628
0.031433415 -0.082462147 0.0077275364
-0.031641833 -0.077808261 0.0069363597
0.030968232 -0.074789263 0.0059788167
-0.031495966 -0.072494589 0.0074546728
0.030339725 -0.071091108 0.0071560787
-0.031501979 -0.067398839 0.0074012256
0.03041246 -0.062091675 0.0063313595
-0.030678658 -0.062323034 0.0070595718
0.030104237 -0.06150287 0.0071584587
-0.03135651 -0.057263903 0.0073655359
-0.027224541 -0.055458315 0.00752082
-0.022415256 -0.056499977 0.0075765993
-0.017329646 -0.056499977 0.0072506513
-0.012480407 -0.055854812 0.0070814397
-0.0067449328 -0.056433138 0.0071248999
-0.0024521246 -0.05649998 0.0075092074
0.002417383 -0.056499969 0.0073495703
0.0076610302 -0.056499973 0.0075750519
0.012529421 -0.053896766 0.0071000461
0.017083433 -0.05649998 0.0075860322
0.022442939 -0.056499977 0.0074957726
0.026552426 -0.056939591 0.0063591944
0.03134666 -0.0575708 0.0074118832
-0.030301034 -0.051739614 0.0065647177
0.030412225 -0.052956115 0.0061349766
-0.030373747 -0.046726588 0.0068997038
0.031406838 -0.047458597 0.0077701709
-0.031514302 -0.042563837 0.0074276505
0.031086564 -0.040831722 0.0072323242
-0.031348161 -0.036122128 0.0069168243
0.030851362 -0.036666028 0.0064951591
-0.031545319 -0.032343984 0.0072909947
0.031486489 -0.032797195 0.0074607972
-0.031508528 -0.027852224 0.0074071693
0.030523321 -0.028032508 0.0072088535
-0.029838147 -0.023026474 0.0060728914
0.031555876 -0.022577565 0.0072174538
-0.03055875 -0.016216319 0.0071821096
0.031307887 -0.016767452 0.0069446326
-0.031498071 -0.013296179 0.0074281679
0.031140827 -0.011153742 0.0070913392
-0.03072047 -0.0082825599 0.0074256044
-0.027377116 -0.0065000025 0.0077361427
-0.021634573 -0.0069536287 0.0066170939
-0.017473752 -0.0065000025 0.0074514668
-0.012174644 -0.0074090934 0.0067902552
-0.0076836562 -0.0075094756 0.0072986139
-0.0023762186 -0.0064497506 0.0069062822
0.0026547569 -0.0078398492 0.0070051169
0.0076473006 -0.0065000029 0.0075037908
0.012548749 -0.0057281596 0.0074502197
0.017204428 -0.0076797334 0.0068434803
0.022468207 -0.0081979595 0.0063964622
0.027280033 -0.0047306302 0.0076625799
0.03130481 -0.0074883336 0.0076530329
-0.03143733 -0.0024371466 0.0076813665
0.031523678 -0.0026863443 0.0073752892
-0.031401299 0.0028271757 0.0078337984
0.031393263 0.0020788009 0.0078595476
-0.0314455 0.007990838 0.0071032457
0.031511024 0.0074381996 0.0074716252
-0.031452827 0.012698092 0.0075829476
0.031403869 0.012729793 0.0077813962
-0.030672807 0.015243752 0.0056406865
0.031199189 0.015386667 0.0070886374
-0.031064987 0.021939578 0.0076731872
0.031127376 0.023195164 0.0072867326
-0.031363327 0.027452834 0.007234103
0.0312819 0.027645875 0.007466292
-0.03042073 0.03139798 0.0065644397
-0.02941338 0.033254717 0.007845954
0.029338853 0.033422183 0.0079449136
0.030418316 0.031492587 0.0064384053
-0.027291404 0.038240794 0.006604596
0.027980236 0.037607089 0.0075650588
-0.025436262 0.040781431 0.0066818427
-0.024877783 0.044570848 0.0091569237
0.024537805 0.044849567 0.0099290013
0.026329599 0.042098109 0.0074673034
-0.025291158 0.045943275 0.0060747042
-0.024075039 0.047771096 0.0078949295
0.023790915 0.045258101 0.0072863614
0.025238633 0.045821954 0.0063995463
-0.022682358 0.052323181 0.007441056
0.022674922 0.05252685 0.0072555221
-0.021135852 0.057171799 0.0072180037
-0.019563774 0.059081376 0.0094455145
0.01951017 0.059266701 0.0094093671
0.020958364 0.057468254 0.0074348045
-0.020256262 0.060602363 0.0061821318
-0.01892931 0.062529713 0.0078209303
0.018947564 0.062793449 0.007540063
0.020214943 0.06089104 0.005973943
-0.016615286 0.064890742 0.0067890082
0.017250391 0.066288553 0.0076052686
-0.015208025 0.067460813 0.0059204437
-0.01284584 0.071569391 0.00796685
0.014428342 0.071767062 0.0070019597
0.015695024 0.071619414 0.0062430766
-0.011443553 0.073595457 0.0063336929
0.012212725 0.077697262 0.0075515802
-0.010098878 0.078327641 0.0074818241
0.011864486 0.082404442 0.0076142456
-0.010957762 0.083059862 0.0066959052
0.011977871 0.086730786 0.0073150927
-0.011896129 0.092347033 0.0076046642
0.011081833 0.091066971 0.0075404211
-0.011564266 0.096703358 0.00760565
-0.0074215173 0.097487725 0.0071492069
-0.0028268432 0.097499982 0.0074395211
0.0025450387 0.094641492 0.0068943989
0.0077303303 0.097499974 0.0076359189
0.011682651 0.096840262 0.0072540049
-0.030239796 -0.091862768 0.0097400825
-0.027455261 -0.09571223 0.012121851
-0.02257359 -0.097499996 0.01224325
-0.016473142 -0.094991878 0.011550151
-0.012058381 -0.097499974 0.012468845
-0.0076356577 -0.097499989 0.012712784
-0.0025081418 -0.097499952 0.012858628
0.0024613116 -0.097499974 0.012460098
0.0074824747 -0.097500026 0.012722234
0.011779521 -0.092430249 0.012381447
0.017456241 -0.097499967 0.012257145
0.022344695 -0.097499989 0.012700332
0.027759509 -0.097090885 0.012942423
0.030348927 -0.096150272 0.011296435
-0.030382833 -0.092183366 0.011258862
-0.027848052 -0.089858189 0.01295114
0.029286765 -0.092410743 0.013820207
0.030333323 -0.092806578 0.011423971
-0.030411897 -0.087550379 0.011165213
-0.029385524 -0.08819139 0.013635408
0.029448783 -0.087049134 0.013517057
0.030355608 -0.087577485 0.011350719
-0.027665958 -0.074409746 0.010173555
-0.029356303 -0.082954548 0.013690095
0.027293622 -0.080658652 0.013595774
0.030473821 -0.0833093 0.010956365
-0.030418314 -0.077815637 0.011144054
-0.029457539 -0.077619158 0.013500663
0.029344751 -0.077743009 0.01371171
0.03043095 -0.077292122 0.011102417
-0.030409141 -0.072266214 0.011174282
-0.029347556 -0.072235882 0.013706458
0.027510069 -0.066124387 0.012392615
0.028356494 -0.07278388 0.010117228
-0.030347411 -0.067493394 0.011377738
-0.028180268 -0.06364131 0.012360069
0.028319422 -0.067309529 0.012564632
0.030404847 -0.067632601 0.01118844
-0.029772932 -0.061531357 0.0098789008
-0.029046427 -0.060487922 0.012750086
0.028418129 -0.061909653 0.012155391
0.03039578 -0.062799908 0.011217967
-0.028782303 -0.058236171 0.010108254
-0.027297923 -0.054711316 0.012161113
-0.022182673 -0.056499977 0.012173132
-0.017658811 -0.056499973 0.012482368
-0.012364835 -0.052363291 0.011690959
-0.0075161783 -0.056499977 0.012649848
-0.0022638384 -0.054831505 0.010907779
0.002372076 -0.054058135 0.012381124
0.007482348 -0.056499973 0.012553215
0.012475903 -0.056499977 0.012197793
0.017384613 -0.056499973 0.012571958
0.022810576 -0.056499977 0.012668994
0.027752239 -0.057322819 0.012522264
0.029700516 -0.05807288 0.0094299782
-0.030355493 -0.052346021 0.011351109
-0.029247861 -0.05246865 0.013892994
0.029455522 -0.052618444 0.013504433
0.028088348 -0.048524845 0.010688822
-0.030444391 -0.047748204 0.011058118
-0.028711263 -0.047032721 0.012558036
0.027912386 -0.048733104 0.013677588
0.028681155 -0.044986684 0.0096967556
-0.029172555 -0.041651119 0.0098032923
-0.029306754 -0.042700261 0.013782802
0.027879102 -0.043272667 0.012737534
0.028284498 -0.043607339 0.011062104
-0.030384492 -0.037650444 0.011254213
-0.029339679 -0.037601024 0.0137212
0.028008079 -0.038659651 0.01319066
0.030354934 -0.037288655 0.011352595
-0.030220041 -0.032305114 0.010101607
-0.0292808 -0.032584719 0.013831371
0.029301619 -0.032137953 0.013792414
0.030390905 -0.032354284 0.011233058
-0.029838426 -0.02354444 0.010722285
-0.029297896 -0.027431425 0.013799374
0.029307185 -0.027605506 0.013781992
0.030358844 -0.027590828 0.011339711
-0.030364286 -0.02218475 0.011321179
-0.027395505 -0.021126047 0.011011207
0.028972326 -0.020197861 0.013444978
0.030366531 -0.022613276 0.011314732
-0.030369079 -0.018284809 0.011303981
-0.029333161 -0.017562496 0.013733391
0.029332384 -0.017571175 0.01373485
0.030404266 -0.017674632 0.011190359
-0.028160606 -0.0094252378 0.0089139957
-0.027732234 -0.013782477 0.012976792
0.029324789 -0.012514606 0.013749053
0.030447744 -0.01261586 0.011046907
-0.028550938 -0.0063637132 0.0099079208
-0.028066957 -0.0070659034 0.012952413
-0.022343393 -0.0073290281 0.01133306
-0.015559901 -0.0086191222 0.0098575521
-0.012424145 -0.0049868599 0.011513354
-0.0072803078 -0.0065000029 0.012840321
-0.0026010142 -0.0065000025 0.012388405
0.0028728782 -0.0069605433 0.012249293
0.0075882329 -0.0076111141 0.011813091
0.012159092 -0.0065125558 0.011693443
0.017313702 -0.0065000029 0.012455653
0.022678606 -0.0073333378 0.012588772
0.027810855 -0.0067705447 0.012866044
0.030380763 -0.0073103458 0.011184746
-0.028254053 -0.00054079178 0.010158565
-0.026783213 -0.0034733701 0.013026658
0.02945151 -0.0030167829 0.01351195
0.03048845 -0.0026826167 0.010912746
-0.028828805 0.0011393856 0.01123844
-0.029233575 0.0024531463 0.013919735
0.029262381 0.0026501657 0.013865833
0.030344421 0.0023338296 0.011330349
-0.030373478 0.0078310398 0.011291819
-0.029413963 0.0077774916 0.013582204
0.029313898 0.00746219 0.013769431
0.028416811 0.006496314 0.010314206
-0.030407077 0.012535863 0.01118111
-0.029319881 0.012657679 0.013758246
0.02937936 0.012374613 0.013646949
0.029462371 0.010784786 0.01040634
-0.030391356 0.017579449 0.011231964
-0.028413009 0.018820722 0.012705599
0.027555048 0.018450646 0.012761087
0.028644944 0.017629167 0.010629135
-0.030463228 0.022518191 0.010996027
-0.029426936 0.022278242 0.013557926
0.029370375 0.022425219 0.013663759
0.030459611 0.02232302 0.011006075
-0.030456096 0.026410015 0.010828087
-0.029124085 0.027838405 0.013514875
0.029336836 0.027461389 0.013277536
0.030433537 0.026752818 0.010784792
-0.02787992 0.032803003 0.01260451
0.027861346 0.032713942 0.012678292
-0.025425546 0.036364328 0.011862535
-0.024591105 0.03906497 0.014380695
0.024555352 0.039260652 0.014296587
0.025612969 0.035746846 0.011960468
-0.025507905 0.04192438 0.010333185
-0.023634421 0.042970613 0.013153816
0.023857776 0.042733379 0.012920702
0.025290627 0.041177675 0.011425695
-0.022190567 0.047391389 0.012483763
-0.019963773 0.049827956 0.014557858
0.019921822 0.049574345 0.014734631
0.021257557 0.047204331 0.011939479
-0.020920079 0.05180436 0.011868698
-0.019247983 0.053734511 0.013400535
0.019188877 0.053242162 0.013785015
0.020904031 0.051813889 0.011884093
-0.020304335 0.055547185 0.010526413
-0.017423535 0.056220859 0.011975947
0.017431591 0.057834033 0.011673442
0.020176666 0.056007285 0.010458536
-0.016519636 0.062439959 0.012181447
-0.01446789 0.060712885 0.013946925
0.014297014 0.06368117 0.014200132
0.016416259 0.0623907 0.012321224
-0.015748488 0.066324718 0.011009448
-0.012902654 0.064965196 0.012552996
0.0099491142 0.069813967 0.014760697
0.01280774 0.067882873 0.013373059
0.015600152 0.066197775 0.011280816
-0.011068587 0.071443975 0.011228498
-0.0083727092 0.071607523 0.013195743
-0.0041776123 0.074526981 0.014986424
0.0043514529 0.074757814 0.014822735
0.0086691398 0.069509611 0.012165311
0.011097903 0.07094831 0.011646912
-0.010557107 0.076436497 0.010395231
-0.0075173629 0.075760737 0.011621698
-0.0032126426 0.07466878 0.013893864
0.0041050431 0.074303493 0.013738057
0.0075443913 0.077654339 0.012287986
0.010560147 0.076209702 0.010552029
-0.010081619 0.082365289 0.010077449
-0.0070843133 0.080588438 0.010927695
-0.0025501368 0.079305843 0.013802361
0.0022564626 0.082783066 0.013963231
0.0072156382 0.080409437 0.010961077
0.010076294 0.080937877 0.010082229
-0.010120423 0.086579002 0.010030756
-0.0069937878 0.083638482 0.011346452
