# .PCD v0.7 - Point Cloud Data file format
VERSION 0.7
FIELDS x y z
SIZE 4 4 4
TYPE F F F
COUNT 1 1 1
WIDTH 944
HEIGHT 1
VIEWPOINT 0 0 0 1 0 0 0
POINTS 944
DATA ascii
-0.016870726 -0.031313926 -0.0454247
-0.012734981 -0.031558041 -0.04542625
-0.0073674321 -0.03141661 -0.045444693
-0.0021786063 -0.031434137 -0.045459084
0.0027283106 -0.031358607 -0.045450576
0.0077258712 -0.031345937 -0.045458667
0.012296866 -0.03141471 -0.04545866
0.017013418 -0.031269219 -0.045424804
-0.017109497 -0.027426574 -0.045460023
-0.012723678 -0.027548917 -0.045499999
-0.0076091508 -0.027547393 -0.045499958
-0.0024083005 -0.027377533 -0.045499969
0.0025214928 -0.027545804 -0.045499973
0.0076638805 -0.027476721 -0.045499958
0.012663605 -0.027686024 -0.045499958
0.016979255 -0.027621571 -0.045453168
-0.016854739 -0.022651816 -0.045470439
-0.012432343 -0.022561261 -0.045499984
-0.0074141766 -0.022639422 -0.045500003
-0.0022103458 -0.02228439 -0.045499992
0.0024248546 -0.022489438 -0.045499954
0.0073981807 -0.022574717 -0.045500014
0.012572742 -0.022336228 -0.045499954
0.017009411 -0.02244157 -0.045469321
-0.016995577 -0.017738089 -0.045460191
-0.012580588 -0.017455021 -0.045499995
-0.0074801799 -0.017609166 -0.045499999
-0.002497036 -0.017607348 -0.045499954
0.0025973448 -0.017494136 -0.045499992
0.007591689 -0.017632265 -0.045499973
0.012144286 -0.017194187 -0.045499969
0.016943321 -0.0175294 -0.045464251
-0.017042596 -0.012451881 -0.045463324
-0.012311284 -0.012452467 -0.045500025
-0.0077950275 -0.012542889 -0.045500014
-0.0025334882 -0.012464557 -0.045499969
0.0023889828 -0.012465701 -0.045499958
0.007554126 -0.012502878 -0.045499969
0.012158981 -0.012402157 -0.045500018
0.017089564 -0.012883657 -0.045466579
-0.016824875 -0.0076454207 -0.045478411
-0.012589726 -0.0074389018 -0.045499999
-0.0077027949 -0.0074551506 -0.045499973
-0.0024882562 -0.0077282167 -0.045499984
0.0023562605 -0.0078304652 -0.045500007
0.0077171614 -0.0076019303 -0.045499969
0.012601971 -0.0071736211 -0.045499988
0.017011339 -0.0076677012 -0.045468528
-0.016847013 -0.002442298 -0.045482494
-0.012511772 -0.0025236548 -0.045499988
-0.007593832 -0.0022831263 -0.045499969
-0.0025108394 -0.0026936622 -0.045499995
0.0025154836 -0.0025135365 -0.045499988
0.0077392701 -0.0023670401 -0.045499977
0.012499036 -0.0025947725 -0.045499995
0.016969031 -0.0025042857 -0.045457587
-0.016961036 0.0026871974 -0.045490071
-0.012623622 0.0024081904 -0.045499977
-0.007648062 0.0024230275 -0.045499988
-0.0025438771 0.0022120757 -0.045499988
0.0025569575 0.0024380772 -0.045499969
0.0074168588 0.0023347645 -0.045499962
0.01242129 0.0027499858 -0.045499995
0.017086849 0.00234982 -0.045467492
-0.016903922 0.0073008421 -0.045481164
-0.012322799 0.0073627257 -0.04549982
-0.0074576084 0.0075137396 -0.045499962
-0.0025995758 0.0077080056 -0.04549998
0.0023827327 0.0076068589 -0.04549998
0.0076046577 0.0074799424 -0.045499995
0.012565893 0.0075016152 -0.045499999
0.016973091 0.0078440169 -0.045470051
-0.016846826 0.012320792 -0.045475047
-0.012569805 0.012239086 -0.045499984
-0.007481066 0.012403287 -0.045499995
-0.0025036333 0.012459352 -0.045500007
0.0024620646 0.01251808 -0.045499977
0.0073531852 0.012585492 -0.045499984
0.012598558 0.012563686 -0.045499999
0.017073555 0.012483981 -0.045461997
-0.016837824 0.017368384 -0.045484275
-0.012587548 0.017635053 -0.04550001
-0.0072649578 0.017366981 -0.045499977
-0.0025463102 0.017559284 -0.045499988
0.0026345681 0.017619099 -0.045499969
0.0073718969 0.017254198 -0.045499999
0.012572397 0.017546281 -0.045499995
0.016867567 0.017483467 -0.045483522
-0.016997701 0.022548765 -0.04546991
-0.012581356 0.022509322 -0.045500003
-0.007395111 0.022494277 -0.045499977
-0.0024220729 0.022591839 -0.04549998
0.0028064265 0.02247938 -0.045499992
0.0076359957 0.022412574 -0.04549998
0.012296744 0.022417976 -0.045499969
0.016988173 0.022438096 -0.045468252
-0.016886478 0.027442919 -0.045459636
-0.012273014 0.027398698 -0.045499977
-0.0075142812 0.027284624 -0.045500007
-0.0025276393 0.027362207 -0.04550001
0.0023321607 0.026947677 -0.045499593
0.0073173675 0.027428033 -0.045499992
0.012442506 0.027268855 -0.045499954
0.017138824 0.027670221 -0.045464635
-0.01698374 0.031320598 -0.045425411
-0.012383807 0.0315019 -0.045443319
-0.0076079178 0.031475477 -0.045435403
-0.0024561477 0.031334557 -0.045446273
0.0025721437 0.031605914 -0.045450509
0.0078079407 0.030565539 -0.04546532
0.012499658 0.031592388 -0.045434274
0.016913446 0.031479057 -0.045447379
-0.017356267 -0.032078709 -0.042592738
-0.012321323 -0.032500025 -0.042698409
-0.0075304173 -0.032500025 -0.042314894
-0.0023393482 -0.032500025 -0.042632475
0.0024810608 -0.032406114 -0.042471539
0.0075548319 -0.032500025 -0.042511597
0.012394034 -0.032500021 -0.042623285
0.017358392 -0.031998187 -0.042531502
-0.018499982 -0.027495714 -0.042365555
0.01849998 -0.02750211 -0.042490359
-0.018499991 -0.022564845 -0.042284556
0.01849998 -0.022461396 -0.04244009
-0.01849998 -0.017716894 -0.042551648
0.018499989 -0.017495282 -0.042580295
-0.018499978 -0.012356444 -0.042537663
0.01849998 -0.012280314 -0.042449601
-0.018499978 -0.0077026254 -0.042605065
0.01849998 -0.0071855718 -0.042477012
-0.018499997 -0.0025484299 -0.042471252
0.018499978 -0.0025653443 -0.042557139
-0.018499989 0.0025948295 -0.042591281
0.018499989 0.0024605985 -0.042567894
-0.018499978 0.0079464111 -0.042626459
0.01849998 0.0074551585 -0.042553727
-0.01849998 0.012577457 -0.042646576
0.01849998 0.012600185 -0.042376265
-0.01849998 0.017493036 -0.042359225
0.01849998 0.017439364 -0.042664438
-0.018499982 0.022497589 -0.042606302
0.018499989 0.022391725 -0.042573176
-0.018499982 0.027329993 -0.042654298
0.018499978 0.027663277 -0.042592138
-0.017299166 0.03179821 -0.042486347
-0.012477991 0.032500025 -0.042494576
-0.007271633 0.031929851 -0.042517189
-0.0023760593 0.032500025 -0.042320002
0.0026217259 0.032500025 -0.042504527
0.007707533 0.032320008 -0.042403292
0.012487512 0.032500025 -0.042405616
0.017438285 0.031981654 -0.042457808
-0.01737787 -0.031979803 -0.037349559
-0.012562084 -0.032500025 -0.037328187
-0.0075797178 -0.032500006 -0.037711862
-0.0024046262 -0.032500025 -0.037438456
0.0021467691 -0.032500025 -0.037542593
0.0072344914 -0.032500025 -0.037576687
0.012158731 -0.031955376 -0.037484918
0.017220972 -0.031738099 -0.037403211
-0.01849998 -0.027689822 -0.037588429
0.018202594 -0.027336659 -0.03771181
-0.01834907 -0.022129957 -0.03743998
0.018341472 -0.021954637 -0.03747515
-0.01849998 -0.017918887 -0.037566975
0.018499982 -0.01751977 -0.03756256
-0.018499987 -0.012847063 -0.037442088
0.018499978 -0.012349578 -0.037499025
-0.01849998 -0.0075285775 -0.037531056
0.018147599 -0.0075458405 -0.037623845
-0.0185 -0.0023401082 -0.03743609
0.018499978 -0.0022178504 -0.037680339
-0.018108523 0.0021964756 -0.037595361
0.018499978 0.002565522 -0.037645645
-0.018499978 0.0077855275 -0.037766382
0.018499978 0.0076416661 -0.0376448
-0.018488258 0.012677931 -0.037769929
0.018487703 0.011969014 -0.037362337
-0.018379172 0.017592797 -0.03763672
0.018499978 0.017552938 -0.037324734
-0.018499989 0.022200907 -0.037357695
0.018499978 0.022468414 -0.037473559
-0.01849998 0.027284846 -0.037568364
0.018499978 0.027698534 -0.037460439
-0.017551264 0.032042604 -0.037792332
-0.012304366 0.032500025 -0.037250429
-0.0073590595 0.032500025 -0.037685268
-0.0027467357 0.032181755 -0.037548784
0.0025815482 0.032445755 -0.037559737
0.0076240194 0.032500025 -0.037452064
0.012117576 0.032001674 -0.037982333
0.017653219 0.031914748 -0.037493061
-0.017670376 -0.031892825 -0.032617949
-0.012672002 -0.032500025 -0.032440621
-0.007378818 -0.032500025 -0.032634851
-0.0023617598 -0.032403275 -0.032607153
0.0025722759 -0.032500025 -0.032287061
0.007219573 -0.032297522 -0.032570265
0.012564248 -0.032500025 -0.032421961
0.017386174 -0.032068171 -0.032330524
-0.018499991 -0.027554091 -0.03230853
0.018206429 -0.027095189 -0.032607835
-0.018499978 -0.022738174 -0.032408431
0.018499982 -0.022627851 -0.032512281
-0.018499978 -0.017464101 -0.032562666
0.018499978 -0.017406551 -0.032444738
-0.018134076 -0.0124732 -0.032632105
0.018191654 -0.012591279 -0.03248312
-0.01849998 -0.0076435809 -0.03236505
0.018499978 -0.0075152167 -0.032654103
-0.018499991 -0.0024105934 -0.032604676
0.018443981 -0.0025840681 -0.03254845
-0.018499989 0.0025052521 -0.032341994
0.018499991 0.0023534358 -0.032190897
-0.018499983 0.0076357313 -0.032521367
0.01849998 0.0076778405 -0.032429099
-0.018144211 0.012715366 -0.032350715
0.018499978 0.012556375 -0.032677516
-0.01819675 0.017218057 -0.032387391
0.01849998 0.017286919 -0.032472223
-0.018499978 0.022606011 -0.032551862
0.018499983 0.022577729 -0.032341205
-0.018499983 0.027489129 -0.032368377
0.018499978 0.027313212 -0.032403935
-0.017513342 0.03200075 -0.032570019
-0.012159311 0.032180455 -0.032723937
-0.00762178 0.032315556 -0.032527614
-0.0022045772 0.032500025 -0.032335442
0.0023604424 0.032500025 -0.032400921
0.0075778887 0.032500014 -0.032497879
0.012499093 0.032500025 -0.032506838
0.017404303 0.031413727 -0.032591704
-0.017385496 -0.031950712 -0.027417399
-0.012226395 -0.032500025 -0.027542626
-0.0073484108 -0.032500025 -0.02754431
-0.0027340269 -0.032500025 -0.027453322
0.002615507 -0.032500025 -0.027604107
0.0072743781 -0.032500025 -0.027547706
0.012498833 -0.032500021 -0.027531054
0.0174192 -0.031981684 -0.027282078
-0.018215403 -0.027282551 -0.027854385
0.018094715 -0.02685271 -0.027738627
-0.018499991 -0.02231076 -0.0275022
0.018225541 -0.022390535 -0.02759875
-0.01849998 -0.017500497 -0.027213337
0.018106362 -0.017670033 -0.027681766
-0.01849998 -0.012221255 -0.027464053
0.018499978 -0.012682863 -0.027526835
-0.018499982 -0.0073465672 -0.027539445
0.018395741 -0.0077943392 -0.027519913
-0.018499983 -0.0025028579 -0.027318643
0.018499978 -0.0024915135 -0.027231127
-0.018499985 0.0021657574 -0.027696759
0.018499978 0.0024618863 -0.027519459
-0.018499982 0.0075546694 -0.027531039
0.018499995 0.0075379401 -0.027461898
-0.01849998 0.012831736 -0.027421132
0.018171007 0.012362965 -0.027907873
-0.018429928 0.017211776 -0.02776828
0.018499982 0.017631825 -0.027560826
-0.018175419 0.022615056 -0.027529771
0.018499978 0.022551812 -0.027403111
-0.018499982 0.02754084 -0.027614033
0.018499989 0.027600557 -0.027383823
-0.017358065 0.032024421 -0.027390247
-0.012868039 0.032500021 -0.027514068
-0.0070490101 0.032500025 -0.027260801
-0.0024563214 0.032500014 -0.027677735
0.0024930744 0.032500025 -0.02749585
0.0070583499 0.032495536 -0.027330875
0.012490631 0.032500025 -0.027522899
0.017487323 0.031824902 -0.027453667
-0.017536838 -0.031506468 -0.022551164
-0.012458629 -0.032500025 -0.022636913
-0.0075629023 -0.032500025 -0.022417765
-0.0023173015 -0.032500025 -0.022333933
0.0023270759 -0.032500025 -0.022353312
0.0074219233 -0.032500021 -0.022432363
0.012395851 -0.032500025 -0.02254685
0.017528161 -0.031995203 -0.022496888
-0.018499983 -0.02734872 -0.022503782
0.018499978 -0.027361562 -0.022630719
-0.018060734 -0.02195943 -0.022653367
0.018499987 -0.022652199 -0.022182368
-0.018499978 -0.017510192 -0.022469711
0.018499978 -0.017562687 -0.022710545
-0.018499983 -0.012273819 -0.022447636
0.018499987 -0.012537737 -0.022754002
-0.01849998 -0.0075139389 -0.02241924
0.01849998 -0.0074872389 -0.022951767
-0.018499995 -0.0024043259 -0.022444595
0.018147599 -0.002429147 -0.022686413
-0.018499978 0.0023333314 -0.022549465
0.01849998 0.0025943189 -0.022229876
-0.01849727 0.0071148323 -0.022564072
0.018499982 0.0076150354 -0.022680633
-0.018499982 0.012394922 -0.022535197
0.018431056 0.01221577 -0.0228805
-0.018499978 0.017636258 -0.022425415
0.018499991 0.017521288 -0.022521775
-0.018499978 0.022581773 -0.022407617
0.01849998 0.022351813 -0.022056594
-0.018122429 0.0274092 -0.02243349
0.018499978 0.027497824 -0.022495696
-0.017472349 0.031988662 -0.022550417
-0.012427927 0.032500025 -0.022294071
-0.007563727 0.032500021 -0.022411188
-0.0024370854 0.032500025 -0.022585429
0.0023154798 0.032225661 -0.022452852
0.0073290165 0.032500021 -0.022555176
0.012169045 0.032208644 -0.022593761
0.017467884 0.031795032 -0.022603247
-0.017679486 -0.031863615 -0.017491974
-0.012523546 -0.032500025 -0.017458528
-0.0073228371 -0.032464862 -0.017846726
-0.0027585577 -0.031892546 -0.01764104
0.0027163872 -0.032500025 -0.017609257
0.0075571518 -0.032500025 -0.017389633
0.01263561 -0.032500025 -0.017233735
0.017435441 -0.032012925 -0.017494619
-0.018491039 -0.027179619 -0.017501485
0.018499978 -0.027566943 -0.017832944
-0.01849998 -0.02257381 -0.017711796
0.018499993 -0.022417329 -0.017450748
-0.018499978 -0.017206436 -0.017872069
0.01849998 -0.01746238 -0.017457124
-0.018499993 -0.012872894 -0.017382184
0.018499989 -0.012602745 -0.01749016
-0.018499989 -0.0076013682 -0.017463582
0.018499978 -0.0074112229 -0.017411804
-0.018499978 -0.0025698387 -0.017577503
0.018499978 -0.0022318033 -0.017414518
-0.018284468 0.0026741121 -0.017746286
0.018499982 0.0025787852 -0.017544612
-0.01849998 0.007434363 -0.017262688
0.018499993 0.0075422442 -0.017412469
-0.018499989 0.012116164 -0.017646382
0.018499985 0.012617193 -0.017544471
-0.01849998 0.017326647 -0.017365407
0.018499978 0.017650411 -0.017228141
-0.01849998 0.022706939 -0.017455891
0.018499982 0.022608824 -0.01746924
-0.018496025 0.027085109 -0.017718032
0.018499983 0.027583741 -0.01745525
-0.017311519 0.031978901 -0.017855322
-0.012478423 0.032500025 -0.017319173
-0.0074303513 0.032500025 -0.017574841
-0.0025328789 0.032500025 -0.017583039
0.0020230743 0.032175161 -0.017892199
0.0077598961 0.031676609 -0.017860066
0.012550263 0.032500025 -0.017588865
0.017331231 0.031944428 -0.017349981
-0.01751603 -0.032002375 -0.012652923
-0.012215795 -0.031882692 -0.012775293
-0.0075096879 -0.032500025 -0.012473496
-0.0025482338 -0.032251298 -0.012609104
0.0026264421 -0.032500021 -0.012520473
0.0074784933 -0.032500025 -0.012238685
0.012109035 -0.032072969 -0.013065614
0.017326806 -0.032027867 -0.012493243
-0.018499978 -0.027517632 -0.012333715
0.018072773 -0.027595498 -0.012618496
-0.018499978 -0.022251926 -0.01242774
0.018499978 -0.022467164 -0.012475947
-0.01849998 -0.017495889 -0.012646369
0.01849998 -0.017411355 -0.012561365
-0.018499978 -0.012555868 -0.012817765
0.018499978 -0.012317983 -0.0125448
-0.018499989 -0.0077268123 -0.012468526
0.018499978 -0.0074750381 -0.012443435
-0.018133642 -0.0025668775 -0.012692581
0.018499989 -0.002722621 -0.012447567
-0.01849998 0.0026740115 -0.012815977
0.018073104 0.0017938269 -0.012829405
-0.01849998 0.0073880539 -0.012670392
0.018284429 0.007138609 -0.012635912
-0.018499989 0.012420843 -0.012543784
0.01849998 0.012555996 -0.012400812
-0.01825184 0.017775778 -0.012779003
0.01849998 0.017578458 -0.012594315
-0.018499978 0.022789057 -0.012621569
0.018499989 0.022473417 -0.012414437
-0.018335439 0.027063737 -0.012640744
0.018499985 0.027415106 -0.012198997
-0.017330928 0.032158449 -0.012460796
-0.012503172 0.032500025 -0.012684263
-0.0075735585 0.031963505 -0.012446114
-0.0025010849 0.032500025 -0.012377871
0.0023927847 0.032500025 -0.012336103
0.0073361341 0.032500025 -0.012810766
0.012438984 0.032500025 -0.012670282
0.017442221 0.031309854 -0.012778195
-0.017176464 -0.031835493 -0.0078213988
-0.012626619 -0.032500025 -0.0076211649
-0.0071948124 -0.032500025 -0.0072398013
-0.0022432066 -0.032493811 -0.0075520887
0.0023129776 -0.032354262 -0.0079202373
0.0077797463 -0.031855635 -0.007763851
0.012573971 -0.032142393 -0.0075946762
0.017619837 -0.031960595 -0.0073518581
-0.018499978 -0.027385607 -0.0076981341
0.01849998 -0.027497716 -0.0075563435
-0.018490247 -0.021857359 -0.0075706239
0.018499978 -0.022564691 -0.0075967461
-0.018289298 -0.017372007 -0.0083003184
0.01849998 -0.017745735 -0.0073182094
-0.017799826 -0.012034866 -0.0082911588
0.017962497 -0.012360317 -0.0081233382
-0.018499998 -0.0076092854 -0.0073561631
0.018499993 -0.0075931097 -0.0074764933
-0.018340539 -0.0024168068 -0.0077292402
0.018172547 -0.0027939558 -0.0077102827
-0.018499978 0.0024170496 -0.0076550343
0.018324759 0.0028167281 -0.0079925777
-0.018499987 0.0072304406 -0.0076181483
0.018499995 0.0077114818 -0.0077942843
-0.018499983 0.012561384 -0.007378181
0.018499983 0.012271822 -0.0074260165
-0.018499978 0.017371371 -0.0076607266
0.018499983 0.017456314 -0.0074952506
-0.01849998 0.02227406 -0.0075323866
0.01849998 0.022640534 -0.0075802533
-0.018499991 0.027492562 -0.0072692065
0.01813126 0.02703454 -0.0076669841
-0.017467109 0.032026317 -0.0073434566
-0.012348772 0.031793654 -0.0081314025
-0.0076118303 0.032500025 -0.0075333496
-0.0025419851 0.032500025 -0.0074760211
0.0026316347 0.032500025 -0.0074507967
0.0076266518 0.032500025 -0.0074511394
0.012337171 0.032500025 -0.0076292441
0.017629169 0.031905055 -0.0073962687
-0.017541811 -0.031986579 -0.0025746175
-0.01249761 -0.032500025 -0.0027148486
-0.0074704578 -0.032500025 -0.0022939928
-0.0026366545 -0.032500025 -0.0024573486
0.0024064335 -0.032500025 -0.0025510464
0.0075965407 -0.032500025 -0.0026358103
0.012533569 -0.032500021 -0.0025878693
0.017288327 -0.031595092 -0.0024958171
-0.018499978 -0.027398776 -0.0024036278
0.018499978 -0.027610829 -0.0024365243
-0.018499978 -0.022709595 -0.0024987282
0.01831373 -0.022273127 -0.0029003748
-0.01808887 -0.017295405 -0.002915754
0.01849998 -0.017331889 -0.0027307326
-0.018499978 -0.01263286 -0.0023982776
0.018280882 -0.012081178 -0.0024101736
-0.01849998 -0.0077340896 -0.0025667774
0.018150922 -0.0077595324 -0.0025849382
-0.018499978 -0.0025669346 -0.0024796496
0.018069969 -0.0020873037 -0.0030982983
-0.018300673 0.0021458727 -0.0027620737
0.01849998 0.0023799494 -0.0029372831
-0.018288143 0.0072399997 -0.0028499151
0.018499978 0.0073395697 -0.0024424826
-0.018392434 0.011953728 -0.0025126224
0.01849998 0.012392561 -0.0025184029
-0.01849998 0.017356845 -0.0024798978
0.01849998 0.017438201 -0.0026677626
-0.018183745 0.022486906 -0.0025925713
0.01849998 0.022660533 -0.002594746
-0.018499978 0.027395317 -0.0025895094
0.018499978 0.027348761 -0.0025895557
-0.017440716 0.031941339 -0.002531572
-0.012471954 0.032500021 -0.0025187484
-0.0076610064 0.032500025 -0.0024127301
-0.0022558169 0.032500025 -0.0024533509
0.002267207 0.032500003 -0.0024583293
0.0075387266 0.032071624 -0.0027452363
0.012393136 0.032020703 -0.0026282624
0.017556297 0.03209915 -0.0024674418
-0.017377611 -0.03207371 0.0026506351
-0.012434463 -0.032500025 0.0026214633
-0.0076005543 -0.032500025 0.0023244349
-0.0026291513 -0.032499969 0.002233248
0.0022471554 -0.032106537 0.0019547436
0.007640962 -0.032500021 0.0026245485
0.012584505 -0.032500025 0.0024760172
0.017080631 -0.031634849 0.0021319455
-0.018267596 -0.027134122 0.0019150508
0.01849998 -0.027393762 0.0026668278
-0.018499991 -0.022513153 0.0023727024
0.018499978 -0.022354441 0.0026910128
-0.018499985 -0.01756053 0.002479621
0.018499978 -0.017501865 0.0025529978
-0.018499978 -0.012335819 0.0024046935
0.018499978 -0.012370453 0.0025695611
-0.018499989 -0.0079368949 0.0022130522
0.018004538 -0.0073152068 0.0017061748
-0.018485423 -0.0025718356 0.0023324443
0.018499978 -0.0024081841 0.0024814347
-0.018499985 0.0024481078 0.002472437
0.01849998 0.0026970126 0.0022829322
-0.018208655 0.0071568624 0.0023910794
0.018499983 0.0074273883 0.0024123939
-0.01849998 0.012560876 0.0023870328
0.01809294 0.01246436 0.0024672253
-0.018054197 0.01691951 0.0027088574
0.01816061 0.017247215 0.0023128469
-0.018129978 0.02216927 0.0020115837
0.018499978 0.022756746 0.0026337416
-0.018499978 0.027264467 0.0025530171
0.01831877 0.027176294 0.0018449276
-0.017559126 0.031825837 0.0026428923
-0.012427823 0.032500021 0.0024502093
-0.0073901694 0.031929851 0.0023890559
-0.0023873234 0.032500025 0.0024691154
0.0022549289 0.032257725 0.0022504514
0.0074772206 0.032500025 0.002295316
0.012417763 0.032500025 0.0027742705
0.017482972 0.031995423 0.0025081672
-0.017559286 -0.031895861 0.0076640435
-0.012376818 -0.032276854 0.0070189307
-0.0076700831 -0.03127832 0.0066767279
-0.0023163341 -0.031416025 0.0067576682
0.002579499 -0.031868044 0.0068648271
0.0075377952 -0.032500025 0.0074432804
0.0125502 -0.032490242 0.0070220898
0.017521471 -0.031885173 0.0077286121
-0.018403605 -0.027506534 0.006952777
0.01849998 -0.027716672 0.007657378
-0.018499978 -0.022389667 0.0075462312
0.018144349 -0.022118313 0.0074910419
-0.018160528 -0.017258963 0.0068488796
0.018160554 -0.01726611 0.0071352529
-0.018388836 -0.011893332 0.0067892773
0.01849998 -0.011973353 0.0074406229
-0.018499978 -0.00735965 0.0078379568
0.018445456 -0.0068727634 0.0075204596
-0.018303497 -0.0027037943 0.0071288585
0.018004945 -0.002853526 0.0066502094
-0.018499978 0.0023806884 0.0072774817
0.018447988 0.0024671366 0.0071231085
-0.018430866 0.0078665568 0.0073374743
0.01849998 0.0078528021 0.0075353286
-0.01849998 0.012485599 0.0074798162
0.01849998 0.012163211 0.0073530246
-0.01849998 0.017690551 0.0076154554
0.018487265 0.01745129 0.007103682
-0.018499978 0.02220835 0.0073375306
0.018499978 0.022848316 0.0074258144
-0.018181019 0.027617 0.0076686428
0.018499995 0.027589256 0.0074582724
-0.017409166 0.032059427 0.0075003346
-0.012621702 0.032500021 0.0078823427
-0.0072344546 0.032500025 0.0074718199
-0.0024123392 0.032500021 0.0075844997
0.0026490551 0.032500025 0.0074363556
0.0073167062 0.032117873 0.0074081109
0.012223904 0.032500025 0.0074618063
0.017376315 0.0320138 0.007701478
-0.017332984 -0.031977486 0.012482771
-0.012612903 -0.032500025 0.012508609
-0.0077830157 -0.032495584 0.012562464
-0.0021893447 -0.032267991 0.012502294
0.00250302 -0.032296665 0.012277981
0.0077719605 -0.0323373 0.01197648
0.012597405 -0.031852622 0.012035326
0.017472696 -0.031981077 0.012680578
-0.018499985 -0.027664043 0.012306761
0.018499978 -0.027566081 0.012303685
-0.01849998 -0.022689154 0.01251236
0.018499978 -0.022455148 0.012675976
-0.01849998 -0.017478203 0.012511045
0.018499978 -0.017429678 0.012507402
-0.018175876 -0.012568079 0.012169588
0.017742936 -0.01239835 0.01182777
-0.018497234 -0.0073582092 0.012391081
0.01849998 -0.0075269546 0.012547019
-0.018304996 -0.0029439963 0.01261343
0.018304596 -0.0028646565 0.011721607
-0.018499995 0.0024321156 0.01276488
0.01848907 0.0027131618 0.012312102
-0.01849998 0.0074235308 0.012568141
0.018499989 0.0076679634 0.01249599
-0.018499978 0.012733134 0.012492729
0.018378178 0.011948224 0.012447545
-0.018499978 0.017642178 0.012543272
0.01849998 0.017432678 0.012263875
-0.017775025 0.022236645 0.012481492
0.018499985 0.022192538 0.01165263
-0.018199177 0.027361933 0.012309641
0.01849998 0.027500419 0.012482049
-0.017391685 0.032053106 0.012211675
-0.012565955 0.032500025 0.01236316
-0.007670192 0.032500025 0.012400259
-0.0021031066 0.032459103 0.012587001
0.0021825151 0.031856459 0.01193387
0.0073313108 0.032156281 0.011866992
0.012651708 0.032500025 0.012675618
0.017390339 0.031982113 0.012588264
-0.017131047 -0.031543404 0.017309636
-0.012310862 -0.032452874 0.017057646
-0.0073509286 -0.03182992 0.017424412
-0.0022458439 -0.031936355 0.015854988
0.0023251851 -0.032342158 0.017081456
0.007171053 -0.032456681 0.017175499
0.012088953 -0.032500021 0.01682326
0.017229076 -0.031913459 0.016954685
-0.018499985 -0.027811078 0.017551504
0.018210107 -0.0273994 0.017056391
-0.018236417 -0.021748601 0.017099081
0.018499978 -0.022511058 0.01749477
-0.018499982 -0.017532533 0.017477054
0.01849998 -0.017711896 0.017370809
-0.018499978 -0.012385416 0.017264251
0.01849998 -0.012449369 0.017278673
-0.018499978 -0.0074009504 0.017632406
0.01793831 -0.0079857698 0.016658347
-0.01849998 -0.0023152428 0.017413955
0.018499978 -0.0023698532 0.017460572
-0.018499982 0.0026127272 0.017674416
0.01849998 0.002745939 0.017161066
-0.018304061 0.0076818792 0.017122703
0.018405398 0.007349133 0.016902728
-0.01849998 0.012644905 0.017627729
0.018499983 0.012416016 0.017420653
-0.018499983 0.017546766 0.017327661
0.01849998 0.017501703 0.017623717
-0.018499987 0.022469657 0.017633872
0.01849998 0.022367219 0.017288882
-0.017786697 0.026894676 0.016887216
0.018499982 0.027586401 0.017355116
-0.017451659 0.032065559 0.017665857
-0.012736016 0.032500021 0.017428448
-0.0078897718 0.031709623 0.016069133
-0.0024683508 0.032500025 0.017682418
0.0026931677 0.032500025 0.017468393
0.0074948645 0.032500025 0.017419577
0.012586185 0.032500021 0.017343558
0.017448315 0.031995971 0.01763271
-0.0172596 -0.031817321 0.022390716
-0.012588395 -0.032447457 0.022146296
-0.007733115 -0.032500025 0.022236902
-0.0022861995 -0.032500025 0.022408998
0.0025193824 -0.032500025 0.02233354
0.0076680081 -0.032500025 0.022506069
0.012460824 -0.032500025 0.022407982
0.017345235 -0.032027517 0.022404492
-0.01849998 -0.027679972 0.022465851
0.018111182 -0.027284233 0.021193596
-0.01849998 -0.02208933 0.022488682
0.018162977 -0.022138724 0.022397643
-0.018499989 -0.017490681 0.022436965
0.01849998 -0.017467156 0.022441097
-0.018499982 -0.012573356 0.022579692
0.018126242 -0.012651435 0.022210065
-0.018499978 -0.0073221298 0.022469809
0.018293586 -0.0078496495 0.0218189
-0.01849998 -0.0021662095 0.022504514
0.018499995 -0.0026854824 0.022578994
-0.017898336 0.0025126173 0.022509258
0.01849998 0.0025890544 0.022305746
-0.018018931 0.0074980203 0.021659957
0.018133642 0.0073430296 0.022374187
-0.018097116 0.012243488 0.022496739
0.018499978 0.012487093 0.022461921
-0.018283324 0.017403802 0.021643396
0.01849998 0.017394353 0.022287222
-0.018499987 0.022323944 0.022438716
0.01849998 0.021994714 0.022134073
-0.018499978 0.027225697 0.022520717
0.018274086 0.027106892 0.021853849
-0.01736391 0.031845819 0.021874966
-0.012524212 0.032500025 0.022443827
-0.0080166431 0.031802144 0.022173373
-0.0021411371 0.032444444 0.021906134
0.0026109295 0.032500025 0.022359705
0.0071543632 0.031900138 0.022597654
0.012257218 0.032500025 0.022774952
0.017253194 0.031674553 0.022074528
-0.017598988 -0.031954616 0.027536253
-0.012363363 -0.032500025 0.027423445
-0.0074976389 -0.032500017 0.027241008
-0.0026563092 -0.032299243 0.026887566
0.0023780025 -0.032500025 0.027718514
0.0075511392 -0.032500021 0.027302258
0.012282369 -0.032152805 0.026514521
0.017376959 -0.03200797 0.027607078
-0.018499983 -0.027577888 0.027979026
0.018225992 -0.027466925 0.026742909
-0.017696025 -0.021515371 0.025757741
0.018486151 -0.022149868 0.026812756
-0.018499997 -0.017306667 0.027657682
0.018262599 -0.017366581 0.027204938
-0.018499978 -0.01251773 0.027576124
0.018202597 -0.011784982 0.026652964
-0.018385405 -0.0069979378 0.026823809
0.01849998 -0.0075430172 0.027442358
-0.018448779 -0.0022767624 0.026981914
0.018359862 -0.0025658184 0.026809976
-0.018499998 0.0026369924 0.027585348
0.018328873 0.0026732432 0.026815724
-0.018499995 0.00765929 0.027592154
0.01849998 0.0075649014 0.027559826
-0.018499985 0.012783569 0.027724084
0.018497244 0.012129638 0.027266497
-0.01849998 0.017512066 0.027196549
0.018499978 0.017515671 0.027935805
-0.017885586 0.022190684 0.025554786
0.018485803 0.022348447 0.026895065
-0.018166646 0.027467074 0.026683232
0.01849998 0.0276847 0.027439026
-0.017543521 0.031968109 0.027503854
-0.012405409 0.032500025 0.02750735
-0.0074684713 0.032186206 0.02700757
-0.0023309866 0.032110374 0.02674661
0.0023258755 0.032249074 0.027504567
0.0076622758 0.032350179 0.027611811
0.012461422 0.032495476 0.027279483
0.017435618 0.031828865 0.027498391
-0.017655836 -0.031901844 0.032491595
-0.012732288 -0.031944171 0.031803824
-0.0071712919 -0.032500025 0.032176819
-0.0021402463 -0.031924296 0.03100067
0.0024380649 -0.032500025 0.032724477
0.0075695422 -0.032500025 0.032558542
0.012508549 -0.032500025 0.0321864
0.017304273 -0.03118634 0.032035448
-0.018499983 -0.027388839 0.032521568
0.01849998 -0.027350759 0.032661933
-0.018143669 -0.021601742 0.031688724
0.018187171 -0.022093553 0.031079045
-0.01849998 -0.017587125 0.031739946
0.018148517 -0.017556895 0.03215006
-0.018499978 -0.012466694 0.032582399
0.018160528 -0.012377552 0.031801641
-0.017888529 -0.0079083275 0.032222711
0.018169623 -0.0073828539 0.031925615
-0.018499978 -0.0025545778 0.032462787
0.018183745 -0.0023484363 0.03251658
-0.018442672 0.0020677855 0.03245778
0.018499987 0.0024980227 0.032391302
-0.018403526 0.0071316715 0.032024674
0.018499978 0.0074746455 0.032453854
-0.018441636 0.012152962 0.031728067
0.018499978 0.012474495 0.032620676
-0.018499991 0.017417891 0.032351416
0.01849998 0.017683053 0.032716181
-0.018492917 0.022694569 0.032571327
0.018128227 0.022344893 0.032357346
-0.018186426 0.02712913 0.032383196
0.018169625 0.027163655 0.031442687
-0.017173342 0.03200461 0.032075327
-0.012189089 0.032063417 0.031653188
-0.0073371781 0.032500025 0.032474257
-0.0023692304 0.03167266 0.031814478
0.0022103081 0.032500025 0.032432809
0.0073968847 0.032500025 0.032494858
0.012540481 0.032500025 0.0326625
0.017182181 0.031124456 0.031030543
-0.017372448 -0.032006916 0.037465546
-0.012408417 -0.032500025 0.037607249
-0.0075889388 -0.032500017 0.037420835
-0.002189402 -0.032100469 0.036371477
0.0024265246 -0.032500025 0.037306573
0.0070804274 -0.032094862 0.035793174
0.012665545 -0.032500021 0.037254285
0.017113969 -0.030691458 0.036162775
-0.018499978 -0.027408447 0.037246563
0.018269811 -0.027135229 0.037124429
-0.018499989 -0.022561034 0.03773623
0.018172331 -0.022153212 0.036666971
-0.018137235 -0.017654005 0.036874723
0.018169623 -0.017032571 0.037053443
-0.01849998 -0.012490364 0.037635718
0.01849998 -0.012883122 0.037327219
-0.018348135 -0.0076293997 0.036679678
0.018499989 -0.0073490832 0.036912277
-0.018499978 -0.0025889331 0.03755803
0.01849998 -0.0025420275 0.036605541
-0.018448906 0.0021249517 0.036906123
0.018154183 0.0027053051 0.037229937
-0.017935108 0.0075590764 0.037008934
0.01800606 0.0079521993 0.036575869
-0.018388744 0.012273587 0.03681913
0.01849998 0.012596359 0.037397571
-0.018499989 0.017351115 0.036976997
0.018499978 0.017311843 0.037511475
-0.017891366 0.022116872 0.0364278
0.018336499 0.022689851 0.036377728
-0.018146763 0.026638441 0.036607645
0.018499998 0.027260251 0.037461851
-0.017404731 0.030955194 0.03667587
-0.01243405 0.032500025 0.037499201
-0.0077571482 0.032500025 0.03768266
-0.0023982904 0.032350805 0.036990635
0.0024669229 0.032242786 0.037078757
0.0075397459 0.032500025 0.037283771
0.012233918 0.032500021 0.037249785
0.017616021 0.031842455 0.037704695
-0.017594514 -0.031795684 0.041552134
-0.012184761 -0.031853206 0.041738372
-0.0073550628 -0.032500025 0.042407922
-0.0023187392 -0.032349117 0.041795358
0.00253442 -0.031893626 0.041112006
0.0072491392 -0.032489739 0.041657127
0.012454329 -0.032500025 0.042391621
0.017490933 -0.03146597 0.041828029
-0.018499982 -0.027492424 0.042508118
0.018257746 -0.026838455 0.041883778
-0.01849998 -0.022590041 0.04267288
0.018499989 -0.022553802 0.042451859
-0.018140756 -0.017207455 0.042069823
0.017856557 -0.01735422 0.04089288
-0.018277563 -0.011746007 0.042037308
0.018499989 -0.012409638 0.042443622
-0.018312477 -0.0077474886 0.042191312
0.018205168 -0.0072856909 0.04208637
-0.018168189 -0.0023840098 0.042395972
0.018098578 -0.0027771774 0.042050045
-0.018496441 0.0023983177 0.041795485
0.018499978 0.0028130582 0.042385757
-0.018499978 0.0074536679 0.042439148
0.018497137 0.007384927 0.041953392
-0.018083656 0.012390608 0.042006239
0.018499982 0.012329646 0.042503934
-0.017753581 0.017031522 0.041633051
0.018248346 0.017201511 0.042017598
-0.018499982 0.02253513 0.042408891
0.01849998 0.022513922 0.042472579
-0.018499991 0.027630961 0.042465523
0.018148625 0.027192477 0.04200004
-0.016676903 0.03151799 0.041134745
-0.012502733 0.032500025 0.04246546
-0.0075716912 0.032500025 0.042450286
-0.0021873852 0.032087069 0.042162366
0.002396537 0.032500025 0.042701509
0.0069438634 0.031848483 0.042044096
0.012395638 0.032500025 0.042548053
0.017270423 0.032034162 0.041751605
-0.01663122 -0.031462781 0.045471601
-0.012775237 -0.031614758 0.045456458
-0.0076662442 -0.031564131 0.045448169
-0.0027360732 -0.031413727 0.045473792
0.0026207736 -0.03138775 0.045468789
0.0079038935 -0.030865494 0.044377573
0.012516636 -0.031518742 0.045447737
0.016184876 -0.030654015 0.044858258
-0.016703559 -0.027078759 0.044287827
-0.012280413 -0.027527871 0.045500025
-0.0075391973 -0.027667951 0.045499984
-0.0025591801 -0.027697183 0.045500021
0.0022100685 -0.026997855 0.045244701
0.0074451342 -0.026837066 0.04521431
0.012456519 -0.026759058 0.04513444
0.016893027 -0.027292766 0.045478523
-0.016989723 -0.022666842 0.04544434
-0.012419656 -0.022763249 0.045289986
-0.0074611413 -0.022166369 0.045416437
-0.0025871554 -0.022699941 0.04528797
0.0025653481 -0.022454808 0.04549998
0.0078290813 -0.022726294 0.045499992
0.012425366 -0.021763697 0.045221224
0.017002976 -0.022701627 0.044425905
-0.017093765 -0.017510138 0.045471132
-0.012674456 -0.017480765 0.045499995
-0.0074776816 -0.016955562 0.045047719
-0.0027342541 -0.017565556 0.045499977
0.0025615168 -0.017449077 0.044324715
0.0074643949 -0.017625285 0.045411371
0.012227181 -0.017691577 0.04488695
0.017150097 -0.017321862 0.045449179
-0.016982537 -0.012290571 0.045475096
-0.012731638 -0.012332638 0.04549998
-0.0072895219 -0.011907565 0.044126891
-0.0026951651 -0.012559793 0.045500025
0.0027541532 -0.012589795 0.045499962
0.0075656334 -0.012533561 0.045123871
0.012546726 -0.012376093 0.045499969
0.017030189 -0.011286164 0.044501051
-0.01704552 -0.0076511484 0.045465395
-0.012520783 -0.0074923844 0.045499988
-0.0070572365 -0.0077546616 0.045063466
-0.0027536997 -0.007201151 0.043944534
0.0022316771 -0.0074266377 0.045499995
0.007137903 -0.0072284108 0.044691227
0.012385282 -0.0073228916 0.044486415
0.016615085 -0.0066316896 0.045007061
-0.016873451 -0.0027242119 0.045480281
-0.012280602 -0.0024143748 0.044168767
-0.0073180911 -0.0029775617 0.04435413
-0.0024205127 -0.0025293392 0.045499958
0.0025268458 -0.002415268 0.045237914
0.0075433431 -0.0027022071 0.045500025
0.012241868 -0.0023942622 0.04550001
0.01705767 -0.0029574821 0.045048308
-0.01682758 0.0028211211 0.045484558
-0.01226398 0.0023838917 0.045500003
-0.0074299639 0.0028816077 0.04538282
-0.0025239778 0.002520019 0.045499973
0.0028044269 0.0028001063 0.044877969
0.0071515236 0.0024650891 0.045382582
0.012323166 0.0025066445 0.045500021
0.016658319 0.0022907155 0.044945143
-0.016625255 0.0075288033 0.044415634
-0.012335225 0.0074579269 0.045500003
-0.0073204273 0.0075221444 0.045249123
-0.0024933107 0.007447599 0.045349326
0.0024072335 0.0071983198 0.044863999
0.0073991013 0.0071783382 0.045499973
0.012615178 0.007409479 0.045471422
0.016927345 0.0074419994 0.045471095
-0.017110121 0.012581095 0.045460004
-0.012250042 0.012248298 0.045497451
-0.0075703841 0.012565402 0.045500003
-0.0024520946 0.012484219 0.045499977
0.0026947288 0.012273216 0.045499995
0.0076062088 0.012431734 0.045499977
0.012384195 0.012000768 0.044732023
0.015906485 0.011835333 0.044310357
-0.017138682 0.017503683 0.045470867
-0.012631642 0.017758127 0.045499969
-0.006967817 0.017038196 0.045410227
-0.0022973577 0.017036742 0.044729251
0.0024331741 0.017480826 0.045200814
0.0076087262 0.017673019 0.045499969
0.012703315 0.017337391 0.044072311
0.017124431 0.017602526 0.045456979
-0.016930325 0.022643425 0.045472041
-0.012297357 0.022204636 0.044646207
-0.0072721178 0.021747027 0.0437181
-0.002013542 0.02160312 0.043776635
0.002428384 0.022643136 0.045499995
0.0075609931 0.022375016 0.045500021
0.012400498 0.022382649 0.045499995
0.017035699 0.021778714 0.04535453
-0.016756279 0.027032625 0.043603245
-0.012647887 0.027455568 0.045500003
-0.0075043738 0.027547402 0.04549998
-0.0023184062 0.027787946 0.045499999
0.0024517779 0.026965225 0.04549747
0.0075566201 0.026970854 0.045220144
0.012257024 0.027087646 0.044535767
0.016986247 0.027084038 0.044602189
-0.016962446 0.031296473 0.04544704
-0.012483734 0.031426094 0.045466784
-0.0075105703 0.031587776 0.045443952
-0.0027799448 0.03127237 0.044473287
0.0021508797 0.031059839 0.043995846
0.0076700374 0.03068037 0.04452347
0.012755521 0.031257458 0.045461051
0.016837347 0.031473611 0.045438264
