# .PCD v0.7 - Point Cloud Data file format
VERSION 0.7
FIELDS x y z
SIZE 4 4 4
TYPE F F F
COUNT 1 1 1
WIDTH 1252
HEIGHT 1
VIEWPOINT 0 0 0 1 0 0 0
POINTS 1252
DATA ascii
0.023866942 0.047647901 -0.018546248
0.025555141 0.047706932 -0.01625279
-0.025126083 0.05246086 -0.01544698
-0.023551432 0.052564606 -0.017733157
0.023844998 0.052767567 -0.018620636
0.023200786 0.054033067 -0.016366074
-0.025055092 0.058548179 -0.015674388
-0.02374997 0.057144854 -0.017564043
0.023707343 0.05771469 -0.018829755
0.025758373 0.057143211 -0.015985275
-0.025261823 0.061804209 -0.015388707
-0.023500798 0.062268533 -0.017956145
0.023984306 0.06224693 -0.018508002
0.025732361 0.062346734 -0.016063005
-0.025289631 0.067728177 -0.015448732
-0.023436217 0.067051753 -0.01813904
0.023784585 0.067504726 -0.018795593
0.025586231 0.068243369 -0.016316107
-0.025232665 0.072373301 -0.015626909
-0.023503873 0.072476879 -0.018099213
0.024204228 0.072702304 -0.018297449
0.025886254 0.072580241 -0.015866742
-0.025484901 0.078373671 -0.015314734
-0.023681467 0.077649362 -0.017973997
0.023949999 0.0773772 -0.0186547
0.025561195 0.07724604 -0.016405538
-0.025423778 0.083205618 -0.015496969
-0.02366792 0.082739338 -0.018072298
0.023989333 0.082615472 -0.018650314
0.025619069 0.083271645 -0.016343717
-0.025333107 0.087408409 -0.015721275
-0.023671273 0.087164827 -0.018128976
0.023915617 0.087505534 -0.018771078
0.025541035 0.087668933 -0.016490476
-0.025410967 0.093276486 -0.015688965
-0.023888526 0.092978135 -0.017923253
0.023985716 0.092526391 -0.018707475
0.025906002 0.092280053 -0.015944831
-0.02541839 0.09794905 -0.015752893
-0.023300672 0.097625323 -0.018541854
0.02397899 0.097520553 -0.018741338
0.025581101 0.097508848 -0.016474765
-0.025693679 0.10255186 -0.015364304
-0.023546776 0.10267482 -0.018533889
0.024058778 0.10246775 -0.01866894
0.025861828 0.10240635 -0.016063435
-0.025480878 0.1073213 -0.015780985
-0.02385236 0.10729558 -0.018192187
0.023786752 0.10780403 -0.019006852
0.025936224 0.10764117 -0.015948437
-0.025400274 0.11060534 -0.015344181
-0.023077982 0.11253658 -0.018123349
0.023392383 0.11279396 -0.018412024
0.025440965 0.11214634 -0.015726488
-0.021727117 0.11641443 -0.017103186
-0.018100858 0.1188337 -0.018476093
0.018852904 0.11885837 -0.018486001
0.021672836 0.11728571 -0.017026437
-0.016255196 0.12102872 -0.016685568
-0.013047614 0.12196837 -0.017317548
-0.0061758854 0.12104401 -0.018042887
-0.0027376267 0.12319648 -0.018015906
0.0027977561 0.12329169 -0.017631486
0.0074969218 0.12306817 -0.017485041
0.012277572 0.12208202 -0.018066719
0.016536655 0.12115665 -0.016840743
-0.020187706 -0.15440249 -0.010397721
-0.017257404 -0.15334654 -0.011815266
-0.011701611 -0.14558795 -0.013068655
-0.0078811003 -0.1543804 -0.01231325
-0.0028818282 -0.15436186 -0.012227882
0.0029957015 -0.1472649 -0.012852643
0.0076386486 -0.15432778 -0.012473676
0.012910721 -0.15377244 -0.012158092
0.017996414 -0.15329392 -0.012483582
0.020867687 -0.15352987 -0.011276762
-0.015060575 -0.14990152 -0.011086669
-0.011713682 -0.14779717 -0.011978813
-0.0081965039 -0.14670996 -0.013465856
-0.0027510647 -0.14539173 -0.014483548
0.0022163317 -0.14525335 -0.014771093
0.007360375 -0.14580871 -0.014176749
0.013025647 -0.14757997 -0.012712936
0.01530511 -0.13437216 -0.012163796
-0.006934722 -0.14374077 -0.011376038
-0.0024906357 -0.14255624 -0.012147002
0.0028516809 -0.14249332 -0.012456659
0.0070360736 -0.14285682 -0.011719956
0.010717672 -0.14410208 -0.010971841
-0.0008202038 -0.13955829 -0.010064731
0.0036572888 -0.13993861 -0.010308676
0.0009935539 -0.040641304 -0.010005895
-0.00022855913 -0.035712421 -0.01005106
0.00089313113 -0.037259854 -0.010041382
-0.00041668676 -0.032398794 -0.010070194
0.0013092855 -0.032062173 -0.010080877
-0.0004605102 -0.027330523 -0.010129991
0.0016627072 -0.026574513 -0.01012818
-0.00081351749 -0.0227417 -0.010120328
0.0011473389 -0.023650205 -0.010171097
-0.00099057355 -0.017127678 -0.010162875
0.0015685201 -0.018009661 -0.010208416
-0.0010866432 -0.012368334 -0.010189786
0.0018501853 -0.012808041 -0.010215239
-0.00080949772 -0.0069769048 -0.01029919
0.0016809718 -0.007708116 -0.010291333
-0.0010908504 -0.0031729187 -0.010277961
0.0020687152 -0.0026173859 -0.010295059
-0.016063446 0.00474157 -0.011159945
-0.012317038 0.0042127213 -0.0125895
-0.0074380706 0.0037611143 -0.012594027
-0.0022603024 0.0033774725 -0.012034581
0.0021531174 0.0030565832 -0.011747542
0.0074041588 0.0037819769 -0.012575309
0.012358114 0.0041569122 -0.012911012
0.016158668 0.0045193559 -0.01126924
-0.021778302 0.0087515414 -0.012774925
-0.017797034 0.0060482887 -0.013010433
-0.014651712 0.0050155325 -0.014139527
0.018024337 0.0057658125 -0.013249027
0.021980507 0.0076957364 -0.012030646
-0.025949994 0.013779243 -0.011178273
-0.023793541 0.012005406 -0.013716
0.024262128 0.011181485 -0.014096432
0.026286963 0.012822353 -0.011901878
-0.026173916 0.016854636 -0.012296496
0.027383655 0.017564565 -0.012437049
-0.026362557 0.022361226 -0.012557804
0.026233073 0.023241648 -0.01276282
-0.026162615 0.027234547 -0.01306041
0.027640129 0.027702697 -0.012352505
-0.025151128 0.033316236 -0.01338866
0.027571831 0.032371722 -0.012530071
-0.026510226 0.037289687 -0.012540125
0.027559517 0.037365079 -0.012557307
-0.026545927 0.042462155 -0.012549323
0.027687825 0.04249071 -0.012328057
-0.026772339 0.0474483 -0.012152641
0.027477413 0.047690887 -0.012775401
-0.026697828 0.051991157 -0.012400054
0.027582521 0.052873123 -0.012589728
-0.026644232 0.057319686 -0.012628198
0.025969438 0.057550568 -0.013390701
-0.026925664 0.062502511 -0.012119202
0.027613485 0.06239482 -0.012563755
-0.026787387 0.067220882 -0.012509302
0.027666965 0.067767613 -0.012476256
-0.026691021 0.072144732 -0.012778514
0.027601447 0.072455876 -0.012599179
-0.027000342 0.077390328 -0.012215262
0.027734306 0.077263832 -0.012350545
-0.02688602 0.082972609 -0.012569286
0.027795902 0.082815357 -0.012245394
-0.026747325 0.087602057 -0.013010649
0.027849669 0.087514602 -0.012085833
-0.026940079 0.092671424 -0.01266282
0.027472956 0.092528187 -0.012966216
-0.027011478 0.097714104 -0.012553242
0.027637389 0.097621799 -0.012604761
-0.027134934 0.10238259 -0.012348648
0.027619729 0.10277007 -0.012654726
-0.027097357 0.10740114 -0.012541262
0.027656579 0.10751835 -0.012561617
-0.026571412 0.11226586 -0.01229116
-0.024598204 0.11492558 -0.014532475
0.024899028 0.11495891 -0.014912201
0.027221704 0.11227286 -0.012042457
-0.025733249 0.11572478 -0.011178025
-0.022643663 0.11804961 -0.01307225
0.023499859 0.118365 -0.012826238
0.025642812 0.11643649 -0.011768326
-0.02111133 0.12043563 -0.011697519
-0.017689418 0.1219173 -0.012501439
-0.011923623 0.11484376 -0.012234385
-0.0079376381 0.12357576 -0.012691458
-0.0025281825 0.12365155 -0.012840066
0.0021507759 0.12367308 -0.012393933
0.0068360693 0.12367868 -0.012325172
0.012492208 0.12339526 -0.012403335
0.017284514 0.12243059 -0.012238239
0.02132942 0.12067117 -0.01160618
-0.020889597 -0.15400751 -0.0072249635
-0.017674752 -0.14832804 -0.0078981323
-0.012476825 -0.15433902 -0.0071692578
-0.007605291 -0.15432213 -0.0071860105
-0.0024999217 -0.15430859 -0.0075749606
0.0022075674 -0.15429412 -0.0077612498
0.0073313857 -0.15427826 -0.0079534734
0.012545615 -0.15021941 -0.0075255656
0.017581906 -0.15412994 -0.0073413751
0.022000844 -0.15317526 -0.0077578663
-0.016408481 -0.14808674 -0.0062641483
-0.013365516 -0.1462843 -0.0083297696
0.01442116 -0.14548054 -0.0090888767
0.017499333 -0.1474611 -0.0076025361
0.020337982 -0.14940201 -0.005722289
-0.011617694 -0.14364231 -0.0071008056
-0.0085107666 -0.14173836 -0.008157854
-0.0045183394 -0.14050347 -0.009739236
0.0087172166 -0.14075977 -0.0089772744
0.012467174 -0.1425328 -0.0075537581
0.015360854 -0.14419672 -0.005993017
-0.0065644775 -0.13810313 -0.0065049157
-0.0027130325 -0.13750461 -0.0084824059
0.0027085249 -0.13734001 -0.009037314
0.0074751731 -0.13225636 -0.0076277852
0.010630591 -0.13919471 -0.0055567585
-0.0061843288 -0.13225639 -0.006206803
-0.002606367 -0.13291726 -0.0082212761
0.0023367226 -0.13210467 -0.0088460092
0.0074908119 -0.12807785 -0.007264493
-0.0049173972 -0.11730531 -0.0064610178
-0.0024952982 -0.12779875 -0.0083420854
0.0027043063 -0.12779632 -0.0088288458
0.0073799947 -0.12751415 -0.0069524511
-0.0062954249 -0.12211604 -0.0062510013
-0.0022046543 -0.11629965 -0.0088752406
0.002503077 -0.12269834 -0.0088948403
0.0083398037 -0.1185106 -0.0069490792
-0.006221436 -0.11704731 -0.0064085699
-0.0030689186 -0.11785278 -0.0082814805
0.0031266047 -0.11793533 -0.0089081135
0.007757776 -0.11743162 -0.0067672958
-0.0049821166 -0.10529267 -0.007340793
-0.0024992281 -0.11272862 -0.0085469456
0.0027765138 -0.10891365 -0.0094488263
0.0079642683 -0.11249945 -0.0066946358
-0.0063761044 -0.10673059 -0.0064261081
-0.0024830981 -0.10775785 -0.0086122258
0.0023870131 -0.10748286 -0.0091158357
0.0069040447 -0.10843378 -0.0071339533
-0.0064903675 -0.10280281 -0.0063671172
-0.0023054595 -0.10226734 -0.0087486869
0.0026088355 -0.10273848 -0.0091221156
0.0065790513 -0.098890193 -0.007413601
-0.0064752381 -0.097368851 -0.0064651649
-0.0028216168 -0.097180687 -0.0086311335
0.0021277932 -0.09336599 -0.0096697556
0.0077338866 -0.097537018 -0.0069733551
-0.0053538545 -0.097916588 -0.0070424029
-0.0022236404 -0.092858456 -0.0088841394
0.002689925 -0.087105401 -0.0097154509
0.0078327386 -0.092693433 -0.0069609806
-0.0049986341 -0.081843115 -0.0070286882
-0.002130447 -0.085723735 -0.0089740632
0.0026760781 -0.087174296 -0.0092684645
0.0080616176 -0.085532002 -0.007289974
-0.0065049804 -0.082213819 -0.0066045471
-0.0021241156 -0.082785368 -0.009036582
0.0017653968 -0.085178353 -0.009721797
0.0073804674 -0.082129486 -0.007383767
-0.0066210884 -0.077647842 -0.00659212
-0.0024693343 -0.074773073 -0.0094879922
0.0029194101 -0.077940345 -0.0093598356
0.0079361713 -0.077439606 -0.0069480771
-0.0066499254 -0.072907552 -0.0066349627
-0.0030368047 -0.072450161 -0.0088781323
0.0025616656 -0.072619803 -0.0094297938
0.0072650821 -0.072781093 -0.0075040944
-0.0068564885 -0.067373976 -0.0065308553
-0.0023041475 -0.067298971 -0.0091902595
0.0022591336 -0.068032674 -0.00952888
0.0079397717 -0.067304954 -0.0070776558
0.010027455 -0.068303145 -0.0050218776
-0.0070174728 -0.062597431 -0.0064163804
-0.0029552511 -0.062479235 -0.0090239272
0.003200742 -0.062656619 -0.0094595933
0.0071650706 -0.060905147 -0.0074390229
0.010037646 -0.061483156 -0.0050615566
-0.0067817937 -0.057513643 -0.0067275404
-0.0030010538 -0.057240453 -0.0090877498
0.0030026427 -0.0574436 -0.0095496969
0.0081018917 -0.057634812 -0.0070203533
0.010003733 -0.056211781 -0.0051461151
-0.0067425757 -0.052689727 -0.0068612993
-0.002327146 -0.052674714 -0.0093529513
0.0025251454 -0.052824765 -0.0096818088
0.0078392206 -0.052227482 -0.0072252937
0.010078972 -0.052238606 -0.0050705643
-0.006369858 -0.050338853 -0.0066922549
-0.0026514872 -0.047278598 -0.0092813959
0.0022733407 -0.047217384 -0.0097907614
0.0075131371 -0.045093715 -0.007570595
0.010081271 -0.046429414 -0.0050994335
-0.006597274 -0.042093489 -0.0070926175
-0.00324938 -0.038609758 -0.0096262349
0.0029187368 -0.042636327 -0.0097337309
0.0075688572 -0.042365316 -0.0075414511
0.010073956 -0.040841423 -0.0051329434
-0.005784797 -0.032222945 -0.007468319
-0.002603313 -0.037575502 -0.0094511965
0.003571515 -0.037982982 -0.0096733803
0.0078687426 -0.037575439 -0.0073422017
0.010071714 -0.038122032 -0.0051469635
-0.0070267739 -0.032660555 -0.0068467301
-0.0031678302 -0.032868575 -0.0093168858
0.0034957982 -0.032442402 -0.0097541306
0.0080251219 -0.032457907 -0.0072370986
-0.006861364 -0.027797319 -0.0070560914
-0.0032146324 -0.027670382 -0.0093819788
0.003819088 -0.027567187 -0.0097136302
0.0076353457 -0.027624771 -0.0076033915
0.010083133 -0.025700497 -0.0051733796
-0.0070942431 -0.02259293 -0.0069067162
-0.0029350789 -0.022527553 -0.0095423851
0.0039380933 -0.022552334 -0.0097293165
0.0080625964 -0.02287372 -0.0073065348
0.010056981 -0.021271436 -0.0052352985
-0.0069867843 -0.017305953 -0.0070333742
-0.0030001102 -0.016854487 -0.0095894001
0.0039106496 -0.017292846 -0.0097900424
0.0078960927 -0.018038834 -0.0075050443
-0.0072375145 -0.012492109 -0.0069159209
-0.0037060389 -0.012815313 -0.0093817795
0.0040272037 -0.0126237 -0.0098030334
0.0076538208 -0.012612236 -0.0077179777
0.010114802 -0.012301983 -0.0051682619
-0.0070524826 -0.0075623672 -0.0071251136
-0.0031265609 -0.01192525 -0.0093007889
0.0043098498 -0.0079986723 -0.0097714541
0.0067147575 -0.0059669241 -0.0081458688
0.010134275 -0.0082625253 -0.00514948
-0.0072870571 -0.0023084898 -0.0069215815
-0.0036092661 -0.002591315 -0.0095429672
0.0042115957 -0.0027664171 -0.0098476699
0.0075510913 -0.0025282844 -0.0078780353
0.010129551 -0.0026949502 -0.0051784143
-0.016997281 0.0044573573 -0.0074950731
-0.012148383 0.0037817797 -0.0077401502
-0.0071839816 0.0024283056 -0.0075208582
-0.0037393179 0.0016837604 -0.0095479749
0.0040886942 0.0019267129 -0.0099253636
0.0073495023 0.0036246064 -0.0084630195
0.012253942 0.0036042307 -0.0077249827
0.017215982 0.0043151174 -0.0071163494
0.020555353 0.0049586766 -0.0050491956
-0.025183802 0.0097645428 -0.0071834228
-0.022745011 0.0075524235 -0.0074023297
-0.01894236 0.005318976 -0.0086035309
0.019277103 0.0050989212 -0.0089767911
0.022061389 0.0062999912 -0.0073794043
0.025795551 0.0092053097 -0.0072036516
-0.026753314 0.012712627 -0.007576277
0.027706366 0.012315252 -0.007588638
-0.028140008 0.017476609 -0.0072333091
0.029250372 0.017876737 -0.007641844
0.030002695 0.019246554 -0.0052285884
-0.028308298 0.022501532 -0.0073469612
0.029286396 0.022502959 -0.0080367485
-0.028355403 0.027256306 -0.007323008
0.029412519 0.027597807 -0.0076166769
0.030032517 0.027654223 -0.005070508
-0.028274294 0.032633841 -0.0077615883
0.029421492 0.032653321 -0.00754283
0.030031202 0.034050848 -0.0050599016
-0.028438587 0.037504535 -0.0072319424
0.029508876 0.03718099 -0.0072607701
-0.02847947 0.042208429 -0.0072221025
0.029632403 0.042258285 -0.0068127266
0.030008608 0.04058734 -0.0051461384
-0.028408168 0.047481693 -0.0076410365
0.029410305 0.047610447 -0.0075642318
0.0078960927 -0.018038834 -0.0075050443
-0.028519109 0.052117128 -0.0073293634
0.02940271 0.052197356 -0.0075769816
0.030008303 0.053766903 -0.0050371932
-0.028532021 0.057448301 -0.0074185589
0.029509882 0.057255324 -0.0072469376
0.030009981 0.055207402 -0.0050105993
-0.028647363 0.06264843 -0.0071026925
0.028070686 0.06349735 -0.0081370277
-0.027175644 0.060738277 -0.0071135443
0.029528376 0.067542374 -0.0071603218
-0.02850873 0.072506301 -0.0078783538
0.028850658 0.064350158 -0.0075471103
-0.028780047 0.077477023 -0.0069472468
0.029408943 0.077808015 -0.0075337514
-0.028579576 0.082363144 -0.0078329481
0.029510688 0.082569323 -0.0071166721
-0.028657792 0.087055676 -0.0076971948
0.029042926 0.086013541 -0.0078653358
-0.02873645 0.092069633 -0.0074578901
0.029361188 0.092451967 -0.0076709571
-0.028769515 0.096166208 -0.0074146455
0.029335802 0.097427882 -0.0077229259
-0.027425084 0.098532967 -0.007376072
0.029409075 0.10262077 -0.0074513615
-0.028748214 0.10790081 -0.0076067648
0.029375862 0.10729323 -0.0074900109
-0.028140834 0.11248536 -0.0075524002
0.028663289 0.1127674 -0.0074205669
-0.026537826 0.11663876 -0.0068175537
-0.024261793 0.1190524 -0.0078621469
0.024392745 0.11938178 -0.0084194429
0.026661051 0.11707846 -0.0074062846
-0.021790925 0.12081762 -0.0073265145
-0.017345602 0.12296881 -0.007804276
-0.012422988 0.12363267 -0.0069099441
-0.0078664944 0.12369397 -0.0073564472
-0.0032716526 0.1185618 -0.008145432
0.0025217854 0.1237246 -0.0078886449
0.0077177091 0.12374705 -0.0075206398
0.012188436 0.12373282 -0.0074978075
0.01784746 0.12307249 -0.0076492466
0.021809323 0.12148335 -0.0074378992
-0.02163182 -0.15320745 -0.0024557009
-0.017625283 -0.15396196 -0.0027951037
-0.01265181 -0.15402815 -0.0028965324
-0.0078090234 -0.1542677 -0.00225509
-0.0020590741 -0.15425408 -0.0028416417
0.0023890466 -0.15423481 -0.0025131223
0.0074905781 -0.15421504 -0.0023467499
0.012759752 -0.15419348 -0.0020707853
0.01756409 -0.15418316 -0.0026564018
0.022179667 -0.14816168 -0.0034106909
0.025316263 -0.15384962 -0.001778585
-0.017289029 -0.14754045 -0.0028900267
-0.014720446 -0.14521569 -0.0045113163
0.018712293 -0.14630023 -0.0028127974
0.020800341 -0.14850335 -0.0020908692
-0.015246059 -0.14451846 -0.0010794904
-0.012820916 -0.14239927 -0.002768036
0.013762727 -0.14145625 -0.004161275
0.016495226 -0.14355864 -0.0020658178
-0.0094380807 -0.14109227 -0.0024417765
-0.0089765331 -0.13780883 -0.0030673791
0.0099767996 -0.13668229 -0.0045576105
0.011679568 -0.13780464 -0.0023286128
-0.0089399945 -0.13206121 -0.0024599959
0.0097990735 -0.13209747 -0.0048223026
0.011028575 -0.12429751 -0.0036790955
-0.0084085967 -0.1224471 -0.0033991912
0.0099151889 -0.12788096 -0.004705226
0.011212069 -0.12773696 -0.0024542948
-0.0089983046 -0.1222764 -0.002452964
0.0097586419 -0.12212844 -0.0049516493
0.011223689 -0.12282547 -0.0023890522
-0.0088647529 -0.11764656 -0.002936542
0.01103401 -0.11765785 -0.0029196993
-0.0088703483 -0.11244582 -0.0027592273
0.0099295471 -0.11403225 -0.0047939657
0.011147149 -0.11267817 -0.0027151597
-0.0078650285 -0.1023014 -0.00402846
0.0099293608 -0.10833175 -0.0048383563
0.011230919 -0.10783894 -0.002450902
-0.010019188 -0.10010237 -4.1242311e-06
-0.0086874953 -0.097976699 -0.0032833745
0.0099054873 -0.10200571 -0.0049181357
0.011357212 -0.10239761 -0.0021719921
-0.010007142 -0.097770557 -0.00018635747
-0.0092137298 -0.097395465 -0.0026262305
0.0099273426 -0.097554311 -0.00492443
0.011093444 -0.097192377 -0.002801761
-0.010029783 -0.091699779 -0.00027393008
-0.0091465134 -0.09310253 -0.0027992406
0.0099767139 -0.094869286 -0.0048815575
0.011423307 -0.092965625 -0.0020161862
-0.010057993 -0.087378323 -0.00024963749
-0.0091644702 -0.087936759 -0.0028645536
0.009932952 -0.087924898 -0.0049917735
0.011219146 -0.087643728 -0.0025114408
-0.010056763 -0.083272934 -0.00042736492
-0.0091321487 -0.082666628 -0.0030805019
0.011083003 -0.082166009 -0.0028521707
-0.010079804 -0.077354133 -0.00049324805
-0.0091292532 -0.077676922 -0.0032329957
0.011176037 -0.077424623 -0.0026516945
-0.010098699 -0.073302917 -0.00051247037
-0.0081418213 -0.075462498 -0.0038013572
0.011312746 -0.072638392 -0.0023818726
-0.010123041 -0.068025745 -0.00054657401
-0.0092287185 -0.067317449 -0.0032059911
0.011375228 -0.067166738 -0.0022523757
-0.010147518 -0.062049057 -0.00055169477
-0.0092018181 -0.061877716 -0.0033924582
0.011142899 -0.062535182 -0.0027869293
-0.010121371 -0.057531454 -0.00083205971
-0.0092712007 -0.057252709 -0.003325273
0.011113938 -0.057367202 -0.002820153
-0.0095981369 -0.04002488 -0.003339339
-0.0092951879 -0.052211378 -0.0033266954
0.011241946 -0.052706685 -0.002556551
-0.010151209 -0.04666581 -0.00095696741
-0.0094029671 -0.047530495 -0.0031686858
0.011234734 -0.04779128 -0.0026019826
-0.010202138 -0.042761784 -0.00087017909
-0.0093633626 -0.042445954 -0.0033401609
0.0099666994 -0.035599951 -0.0036929671
-0.010199751 -0.036414061 -0.00099748455
-0.0094140675 -0.037103392 -0.0033503966
0.011330872 -0.037545506 -0.0022912333
-0.01019646 -0.031673528 -0.0011299074
-0.009418753 -0.032935083 -0.0034900894
0.010605906 -0.028969321 -0.0028403481
-0.010276196 -0.027496032 -0.00088621996
-0.0095003406 -0.027356761 -0.0034153294
0.011358497 -0.027305791 -0.0022665728
-0.010251666 -0.022685908 -0.0010994028
-0.0094495695 -0.022026597 -0.003643285
0.011252982 -0.023107341 -0.0025663192
-0.0091913184 -0.026384724 -0.0010645746
-0.0095394868 -0.017801469 -0.0034481965
0.01128852 -0.017489223 -0.002476369
-0.010308899 -0.012439093 -0.0011440802
-0.0095455898 -0.012936828 -0.0035344204
0.011148636 -0.012430724 -0.0028391266
-0.010327424 -0.007313217 -0.0011302661
-0.0094533414 -0.0080737323 -0.0038132181
0.011161077 -0.0076428032 -0.0028805265
-0.010228992 -0.0018170318 -0.0016751146
-0.0094360653 -0.002253819 -0.0040267119
0.011294818 -0.0024888208 -0.0024822892
-0.017574208 0.004299358 -0.0028255298
-0.012192433 0.0035867989 -0.0018706381
-0.0095081693 0.0021804359 -0.0039563789
0.011980181 0.0026565283 -0.0028545551
0.017161764 0.00081075844 -0.002674798
0.020508623 0.004856023 -0.0022467664
-0.025717225 0.0093188183 -0.0023480242
-0.023285361 0.0090743331 -0.0027618769
-0.019985082 0.0050211363 -0.0016587914
0.022815308 0.0060074171 -0.001988851
0.024069952 0.012029164 -0.0030748877
-0.027469216 0.012270129 -0.002313155
0.028507274 0.012179006 -0.0026660098
-0.028919602 0.018280458 -0.0025601122
0.029800897 0.015848065 -0.0030698401
0.030211445 0.01780601 -0.0022421412
-0.02919998 0.022643104 -0.002632383
0.030361533 0.02269789 -0.0026722252
-0.028348688 0.022425966 -0.0027340928
0.03035425 0.027507342 -0.0025691988
-0.029254669 0.032592565 -0.0025858795
0.029796064 0.028490966 -0.0026703645
-0.029265821 0.037346181 -0.0027070357
0.030358907 0.037466295 -0.0022638014
-0.029308029 0.042202208 -0.002529972
0.030342408 0.04239196 -0.0022876712
-0.027548295 0.049397394 -0.0037441822
0.030326201 0.047516227 -0.0025368165
-0.029310351 0.052505665 -0.0029211901
0.030324074 0.052982636 -0.0023522764
-0.029362066 0.057466701 -0.0026824302
0.030281954 0.057256792 -0.0027036557
-0.029411359 0.062362529 -0.0024062686
0.030290073 0.06221468 -0.0024798689
-0.029390909 0.067575552 -0.0028784736
0.030303176 0.067234538 -0.0021602293
-0.029425133 0.072592244 -0.0025941769
0.029981013 0.072407842 -0.0049773986
0.030271417 0.072533287 -0.0023346518
-0.029508755 0.077678159 -0.0019247684
0.030244417 0.077077605 -0.0025168268
-0.0294636 0.082916602 -0.0029141051
0.029972441 0.081968367 -0.0049152365
0.028765891 0.082684398 -0.0041190335
-0.029518601 0.087843634 -0.0025754389
0.029971773 0.087987289 -0.0048486656
0.03026158 0.087666556 -0.0020534154
-0.028915647 0.086355083 -0.0022554421
0.029964376 0.092952602 -0.0048334841
0.030223459 0.092185043 -0.0022861857
-0.029530086 0.097250342 -0.0027299544
0.029969111 0.097394332 -0.0047540106
0.028567834 0.095557489 -0.0021744415
-0.02779658 0.10103591 -0.0029058799
0.02991873 0.10363501 -0.0049733762
0.030190954 0.1026331 -0.0023265316
-0.029566299 0.10788059 -0.0023953551
0.029938094 0.10907771 -0.004036413
0.029871898 0.10507903 -0.003166198
-0.028890487 0.11253987 -0.0025186555
0.029490298 0.11241308 -0.0025898155
-0.02680154 0.11703098 -0.0025670882
-0.024566723 0.11970803 -0.0025649052
0.024992947 0.11991336 -0.0028708815
0.027413044 0.11712343 -0.0025082538
-0.022350319 0.12136652 -0.0018686923
-0.017396599 0.12325784 -0.0026770888
-0.012920463 0.12372709 -0.0024504138
-0.0075949612 0.12375098 -0.0023329284
-0.0018410959 0.12376691 -0.0027098835
0.0022143596 0.12378006 -0.0028007932
0.0075394739 0.12380045 -0.0026514698
0.011242907 0.1195657 -0.0034311009
0.01826912 0.11971438 -0.0022725905
0.022496581 0.12164413 -0.0023789059
-0.051253736 -0.15207493 0.0025220814
-0.047533959 -0.15270258 0.0024410023
-0.042584646 -0.1525216 0.002394639
-0.036997285 -0.15234917 0.0024536471
-0.03285113 -0.15277773 0.0024127413
-0.027701171 -0.15267299 0.002383865
-0.022316176 -0.15194108 0.0025015725
-0.01751717 -0.1544133 0.0023518491
-0.01246682 -0.1543638 0.0024555272
-0.0076150256 -0.14965211 0.0017241325
-0.0025116866 -0.15431803 0.0023710413
0.0022727072 -0.15428962 0.0025188273
0.0075156987 -0.15430836 0.0024322197
0.012494557 -0.15422045 0.0026219662
0.016283343 -0.15149751 0.0016719709
0.022782756 -0.15319459 0.002407128
0.02544657 -0.14696631 0.0018274685
0.031544998 -0.15007313 0.0023249537
0.036294788 -0.14856161 0.0018121762
0.042248417 -0.15284525 0.002412817
0.046918582 -0.15308018 0.0024146331
0.051391523 -0.15182367 0.0024477306
-0.051766373 -0.14722219 0.002463978
-0.046154793 -0.14554965 0.0023320226
-0.041221049 -0.14268753 0.002057292
-0.037491001 -0.14766398 0.0023992737
-0.032232475 -0.14748628 0.0024133797
-0.026885375 -0.14662783 0.0022638396
-0.022429174 -0.14724812 0.0024046879
-0.017390776 -0.14243934 0.0019548768
0.019240147 -0.1457735 0.0025946109
0.022351913 -0.14439285 0.0021619794
0.026710307 -0.1438503 0.0020630499
0.032413676 -0.14740303 0.0023849637
0.036882315 -0.1464228 0.0022381437
0.04229182 -0.14752376 0.0024473628
0.047253784 -0.14775191 0.0024361517
0.05155538 -0.14745598 0.0024481439
-0.051631182 -0.1421677 0.0024165907
-0.046487477 -0.13672173 0.001811333
-0.042627025 -0.14233537 0.0024020008
-0.037314314 -0.14226757 0.0024144244
-0.032236468 -0.13938072 0.0021161132
-0.027484361 -0.14282326 0.0024300646
-0.022691576 -0.14264236 0.0024831123
-0.01652321 -0.14202964 0.002317107
-0.013733607 -0.14185801 0.0021887582
0.014711264 -0.14059375 0.002616565
0.017594311 -0.14014813 0.002193453
0.022626445 -0.1423365 0.0024180321
0.027583005 -0.14254048 0.0024174552
0.032397643 -0.14258154 0.0023838647
0.037340164 -0.14242981 0.0024324176
0.042525694 -0.14242521 0.0024901826
0.046924524 -0.14169951 0.0023050173
0.049519874 -0.13588826 0.0015209499
-0.051420424 -0.13710865 0.0024220033
-0.046629492 -0.1337368 0.0018936004
-0.04231808 -0.13799424 0.0024438337
-0.03754672 -0.13770036 0.0024066945
-0.032761499 -0.137568 0.0024088426
-0.027056713 -0.13756414 0.0023923393
-0.022355534 -0.13757773 0.0024644537
-0.017565446 -0.13734339 0.0024174552
-0.011978088 -0.13149346 0.0017186743
-0.0098700328 -0.13683408 0.0021817225
0.012491653 -0.13458431 0.002103338
0.017012851 -0.13522974 0.0021481549
0.022386599 -0.13724215 0.0024367063
0.027212471 -0.13353318 0.0019944122
0.032565787 -0.13775498 0.0024420009
0.037372902 -0.13745178 0.0024335387
0.041258689 -0.13455118 0.0020330856
0.046131752 -0.13302559 0.0021208243
0.051608261 -0.13749787 0.0024686016
-0.050119333 -0.13282172 0.0024588355
-0.046061773 -0.12741254 0.0018466667
-0.042769849 -0.13250585 0.0024691015
-0.037494071 -0.13246022 0.0024644537
-0.032236077 -0.13263452 0.0024176147
-0.027315436 -0.12929411 0.0021924805
-0.022358404 -0.13256916 0.0023942231
-0.017509194 -0.13277379 0.0023458181
-0.011644816 -0.12809071 0.0015907659
-0.0098740282 -0.13297641 0.0027273134
0.01305077 -0.13285127 0.0024429474
0.017106269 -0.13301934 0.0022376017
0.021807618 -0.13070117 0.0022986622
0.027519854 -0.13237478 0.0024965622
0.032257613 -0.12936084 0.0023719619
0.037371784 -0.13230202 0.0024041433
0.042181388 -0.13229597 0.0024130722
0.04760525 -0.13247642 0.0024455856
0.051743265 -0.13303812 0.0023673971
-0.05161158 -0.12762669 0.002455669
-0.047584079 -0.12750037 0.0024017293
-0.042293806 -0.12790808 0.0024455856
-0.036576644 -0.12501353 0.00204222
-0.032638434 -0.12739401 0.0024139357
-0.027810674 -0.12714992 0.0024306213
-0.022898916 -0.12780249 0.0023820007
-0.016924283 -0.12777594 0.0021780434
-0.011982864 -0.12488821 0.0019813727
-0.0098641552 -0.12725973 0.0032344216
0.012623693 -0.12289235 0.0019587867
0.017786361 -0.12763317 0.002425333
0.021413181 -0.12304547 0.0018623077
0.026699033 -0.12430426 0.0022373411
0.032441363 -0.12764581 0.0024845004
0.037311804 -0.12748094 0.0024439301
0.042195976 -0.12577356 0.0022210816
0.045822419 -0.12260452 0.0017628288
0.0506147 -0.12524664 0.0022230616
-0.051611807 -0.12250131 0.0024045554
-0.047346827 -0.1228174 0.0024293531
-0.0426303 -0.12240115 0.002422001
-0.036410075 -0.12103353 0.0021907408
-0.03109147 -0.11867171 0.0020219993
-0.027471535 -0.12271872 0.0023980269
-0.022352325 -0.1223617 0.0023803334
-0.01771339 -0.1204548 0.0023508559
-0.012514886 -0.11937208 0.0018860581
-0.0098646432 -0.11833896 0.0022014072
0.012823587 -0.12316124 0.0025717199
0.017328322 -0.1223361 0.0024796934
0.021787301 -0.11993631 0.0019600878
0.02745159 -0.12247588 0.002422001
0.032678299 -0.1225328 0.0024604623
0.036966637 -0.11888728 0.0020779723
0.040842284 -0.11735184 0.0016500321
0.047422655 -0.12249483 0.0024269742
0.051727429 -0.12227187 0.0023358718
-0.050772082 -0.11826691 0.0022783517
-0.047380354 -0.11765268 0.0024497786
-0.041637387 -0.11458413 0.001867814
-0.037347816 -0.11709438 0.0024299158
-0.032465946 -0.11730671 0.0024455856
-0.027473187 -0.11729877 0.0024144244
-0.02206229 -0.11761159 0.002192799
-0.017103162 -0.11442509 0.0020642586
-0.012435289 -0.11208934 0.0015838051
-0.0099361222 -0.1177463 0.0030413887
0.013573335 -0.11790069 0.0024749218
0.017435526 -0.11254704 0.0018000776
0.022474078 -0.11756041 0.0024144242
0.027789891 -0.1175229 0.0024295759
0.031915151 -0.11472842 0.0021020442
0.037476346 -0.11808728 0.0023677582
0.041751396 -0.11648278 0.0022765005
0.047034565 -0.11545095 0.0021003049
0.051742971 -0.11732777 0.002441199
-0.051441573 -0.11253792 0.0024380321
-0.047458027 -0.11266126 0.0023820007
-0.042655014 -0.1124481 0.0024220003
-0.037478264 -0.11224748 0.0024379583
-0.032393485 -0.11262432 0.0024601363
-0.027542308 -0.11260489 0.0024072945
-0.022372719 -0.10963861 0.0022445305
-0.017356433 -0.11275705 0.0024577144
-0.011992118 -0.11064464 0.001846942
-0.0098895915 -0.11254575 0.0035195858
0.01304581 -0.11211998 0.0026381821
0.017476287 -0.11271733 0.0024564832
0.022610763 -0.11294223 0.002422001
0.02746658 -0.11035723 0.0021821584
0.031931199 -0.1095937 0.0018873669
0.036451444 -0.10823896 0.0018363808
0.041016333 -0.10650144 0.0016752416
0.04722457 -0.11270959 0.0024577151
0.05167824 -0.11222465 0.0024063417
-0.049858924 -0.10863823 0.0021453081
-0.04497356 -0.1001554 0.0011637042
-0.041365959 -0.10510629 0.0021732538
-0.037172239 -0.10477065 0.0017940806
-0.032791119 -0.10799079 0.0024143378
-0.027332217 -0.10326351 0.0021047816
-0.021943007 -0.10658225 0.0022403917
-0.017286833 -0.10729834 0.002430334
-0.011378466 -0.10457062 0.0017679264
-0.0098691611 -0.1070148 0.0043892539
0.012691432 -0.10763849 0.0021627925
0.017650453 -0.10746289 0.0024219998
0.022234038 -0.10832261 0.0022085048
0.027419087 -0.10731381 0.0025053339
0.032653701 -0.10769611 0.0024155905
0.03743878 -0.10724068 0.0022386734
0.042417251 -0.10791171 0.0023875181
0.047193963 -0.10774656 0.0024590378
0.051565949 -0.10726044 0.0024521435
-0.051842231 -0.10254015 0.0023911113
-0.044996135 -0.094194651 0.0012871998
-0.042546727 -0.10233041 0.0024527025
-0.037520155 -0.10249909 0.0024439306
-0.032322332 -0.10244478 0.0024759225
-0.026422745 -0.09929058 0.0020233879
-0.021474652 -0.099299006 0.001853655
-0.016423671 -0.10326786 0.0024034504
-0.012041842 -0.10201405 0.0022927288
-0.0098770764 -0.10220904 0.004407255
0.012863335 -0.10214467 0.0022020882
0.017765081 -0.10274048 0.0023576063
0.022499183 -0.10241976 0.0024068486
0.026837824 -0.10279229 0.0024391869
0.032374967 -0.10288921 0.0024058709
0.037632044 -0.10252402 0.002361394
0.042083196 -0.10322609 0.0022862703
0.047405075 -0.10250954 0.0023847667
0.049678009 -0.09441296 0.0010628892
-0.050192345 -0.092557713 0.002081156
-0.047005374 -0.095219113 0.0020664714
-0.042436685 -0.097450443 0.0023862857
-0.037785172 -0.097647458 0.0023847667
-0.031410556 -0.094145373 0.0017909004
-0.027455758 -0.09776213 0.0024176147
-0.022445295 -0.097397044 0.0024950777
-0.018013518 -0.093850292 0.0022355879
-0.012112021 -0.09737666 0.0023045752
-0.0098956153 -0.097335622 0.004356279
0.012545648 -0.095503062 0.0022086045
0.01652888 -0.091511339 0.0015706082
0.022800423 -0.09741573 0.0024168987
0.027637416 -0.097570457 0.00242732
0.031409755 -0.091735989 0.0014648563
0.037277058 -0.097672373 0.0024542585
0.041449066 -0.094330944 0.0021158524
0.046145879 -0.097689748 0.0023150633
0.051806714 -0.097362675 0.0023979212
-0.051620506 -0.092833675 0.0024546625
-0.047658972 -0.092569597 0.0024293533
-0.042626843 -0.092684343 0.0024845002
-0.035647191 -0.089978881 0.0023428318
-0.031432971 -0.093506657 0.0019576941
-0.027410271 -0.092338592 0.0024577151
-0.021326125 -0.089794651 0.0017843053
-0.01756265 -0.090764627 0.002103942
-0.01177522 -0.089736454 0.0020237078
-0.009896894 -0.09252806 0.0043865941
0.01286706 -0.092431784 0.0023613132
0.017510694 -0.092624404 0.0023950771
0.022684412 -0.092484154 0.0024440587
0.026347792 -0.092261657 0.0024158033
0.031310953 -0.087639503 0.0021869722
0.035815172 -0.093952581 0.0024562837
0.037895765 -0.089507028 0.0017740512
0.045131225 -0.092267796 0.0022584207
0.050543536 -0.093410254 0.0022011837
-0.051429987 -0.087619312 0.0024072926
-0.04548664 -0.079837918 0.0010358117
-0.042408224 -0.08739762 0.0024588853
-0.037528887 -0.087500386 0.0024220007
-0.031194104 -0.085793391 0.0021932782
-0.027337065 -0.087223858 0.0024141874
-0.022219954 -0.087142795 0.0022212144
-0.016037891 -0.088549793 0.0024272767
-0.012071976 -0.083555333 0.0015919178
-0.0098821064 -0.086912103 0.0044798306
0.012538346 -0.087132394 0.0022440755
0.017520834 -0.087601833 0.0024553337
0.021606077 -0.082478516 0.0018031801
0.026351102 -0.081378736 0.001939408
0.032451078 -0.08742176 0.0024220007
0.036687627 -0.084157117 0.0017815796
0.040692318 -0.086586609 0.002023947
0.046844717 -0.088711947 0.0020690137
0.051678058 -0.087761581 0.0023993724
-0.051505703 -0.082639843 0.0023903765
-0.046732295 -0.083296776 0.0023685803
-0.042344075 -0.082618341 0.0024523034
-0.037633024 -0.082579747 0.002395215
-0.031839378 -0.079243392 0.0019448478
-0.027720289 -0.082667723 0.0024143883
-0.022352951 -0.082966909 0.0024542587
-0.016663613 -0.080021434 0.0020010551
-0.011060164 -0.084418632 0.0022092455
-0.0099047301 -0.082624935 0.0044151512
0.012807788 -0.082624033 0.0023784635
0.017853238 -0.083129793 0.002374317
0.022512425 -0.08235763 0.0024262378
0.026960079 -0.082596615 0.0021862274
0.032320254 -0.082561545 0.002444728
0.037008412 -0.081623167 0.0022123847
0.040635772 -0.080887273 0.0014891536
0.04739875 -0.078802131 0.0019341076
0.051552851 -0.082518332 0.002358709
-0.051453821 -0.077757373 0.0024209002
-0.047670607 -0.077865072 0.0024590378
-0.042689193 -0.078427136 0.0024011671
-0.036682241 -0.075416021 0.0018973033
-0.030977363 -0.078538544 0.0024436107
-0.027644059 -0.077797271 0.0024614746
-0.02199406 -0.074966259 0.0022206695
-0.017502109 -0.077694841 0.0024168987
-0.011645298 -0.077346548 0.0023685906
-0.0050473409 -0.055905301 0.0027561071
0.012460517 -0.078028157 0.002068196
0.017619278 -0.07753668 0.0023669156
0.022213414 -0.077922322 0.0024485965
0.026315238 -0.075607859 0.0022568309
0.032613587 -0.077388689 0.0024027689
0.0374626 -0.077223405 0.0024376251
0.042660601 -0.077405833 0.0024041438
0.046311386 -0.078405619 0.0024221125
0.050355352 -0.077294618 0.0023529641
-0.050471626 -0.073237635 0.0022764246
-0.045619629 -0.073158965 0.0022041441
-0.042586949 -0.072555691 0.0024497781
-0.035884183 -0.069513015 0.0020646518
-0.031648926 -0.07053604 0.0019343909
-0.027458122 -0.069029912 0.0021584688
-0.022110133 -0.069572136 0.001836154
-0.016523527 -0.070707858 0.0018705314
-0.011754663 -0.072408393 0.0022893248
-0.0098915882 -0.072476901 0.0045253653
0.012503796 -0.070336193 0.0021295573
0.016113831 -0.071946383 0.0023165019
0.022245659 -0.072692305 0.0024553838
0.027458094 -0.072401509 0.0024557838
0.032572836 -0.072562151 0.0024017293
0.037507426 -0.072698735 0.0023447277
0.042437468 -0.072703779 0.002373924
0.047456827 -0.072532095 0.0024220005
0.051648535 -0.072753087 0.0023758519
-0.051652294 -0.067641206 0.0023259129
-0.046677638 -0.068497151 0.0023884089
-0.04269382 -0.067277491 0.002451662
-0.03454284 -0.063734815 0.0016289459
-0.031535558 -0.063626572 0.0018293506
-0.027565721 -0.067338169 0.0024057659
-0.022386106 -0.067514777 0.00240785
-0.017495137 -0.067646481 0.0024514121
-0.011886446 -0.067795992 0.002276852
-0.0064665186 -0.050923672 -0.0018353384
0.01286694 -0.06737414 0.0024227228
0.017411444 -0.067748405 0.002418753
0.022292605 -0.067786857 0.0024317398
0.02588369 -0.066195361 0.0022716317
0.032798447 -0.067368023 0.0024127413
0.036665436 -0.065731779 0.0018988096
0.040392324 -0.064708553 0.0020283391
0.046483126 -0.06284944 0.0016630259
0.051733121 -0.067635693 0.0024544997
-0.050572284 -0.061331559 0.0017750597
-0.047479101 -0.06226531 0.002377358
-0.041888978 -0.059897415 0.0018928301
-0.036615565 -0.06097234 0.0019872461
-0.032164749 -0.062019426 0.0022826008
-0.026636992 -0.059762988 0.0019262251
-0.022737997 -0.062602915 0.0024267179
-0.017629856 -0.062456273 0.0024262378
-0.012126829 -0.062530652 0.0022882859
-0.00989326 -0.063115053 0.0045021083
0.012288774 -0.060123362 0.0024809872
0.017914906 -0.062519439 0.0023649829
0.022573316 -0.060778603 0.0021112002
0.026964851 -0.061186288 0.0020588746
0.032168016 -0.062576935 0.0024083641
0.036700331 -0.060914878 0.0019703384
0.04274375 -0.062432144 0.002417455
0.047381058 -0.062772185 0.0024072952
0.051357236 -0.062554128 0.0023672841
-0.051832952 -0.057409849 0.0024496389
-0.047552712 -0.057309289 0.0024106372
-0.04258484 -0.057789344 0.0024088428
-0.036618643 -0.057734989 0.0024407902
-0.032505058 -0.057505 0.0024555821
-0.026705258 -0.05305291 0.001487206
-0.02171655 -0.054589737 0.0018882683
-0.017312799 -0.05511529 0.0019056442
-0.01217372 -0.057531707 0.00233774
-0.0098506771 -0.056203086 0.0046198121
0.012716923 -0.057459872 0.0026582235
0.01755845 -0.058951963 0.0024184838
0.021762285 -0.054620817 0.0021577454
0.027571935 -0.057633534 0.0024406565
0.031006094 -0.0526972 0.0015555883
0.037282228 -0.05718331 0.0024702463
0.041724868 -0.059297636 0.0020352919
0.047245204 -0.057392597 0.0024342954
0.05170501 -0.057501603 0.0024643815
-0.051615696 -0.052384954 0.0024024101
-0.046624091 -0.052812167 0.0024254092
-0.042566512 -0.052600637 0.0023942227
-0.036491524 -0.052678008 0.0023710097
-0.030712245 -0.048534766 0.0014310017
-0.027871082 -0.052351698 0.0024083643
-0.022172244 -0.049563121 0.0017077483
-0.017094329 -0.053139497 0.0024802089
-0.011832577 -0.051145237 0.0020415473
-0.0098501323 -0.052089494 0.004611853
0.011904318 -0.049577832 0.0020062488
0.01736561 -0.052591648 0.0024032497
0.022089096 -0.051522832 0.0019934068
0.026616592 -0.053377092 0.0024600886
0.032589089 -0.052319635 0.0024041433
0.036214583 -0.052766528 0.0016252939
0.042051431 -0.052589763 0.0024347124
0.046194129 -0.049891174 0.0021179782
0.051382568 -0.053832673 0.002446678
-0.04976128 -0.045488544 0.0018982032
-0.047486205 -0.047470994 0.0023933121
-0.04252078 -0.047398288 0.00248556
-0.03725569 -0.048138641 0.0022727223
-0.032490093 -0.047556479 0.0024644539
-0.026967678 -0.047942065 0.0023307521
-0.022733441 -0.047432665 0.0024177635
-0.017147927 -0.046529524 0.0020386479
-0.011949826 -0.047707975 0.0022477109
-0.0098780617 -0.048108131 0.004514629
0.012507979 -0.046706736 0.0021862288
0.017281365 -0.047751639 0.0022587972
0.021773372 -0.044963051 0.0024219234
0.026822971 -0.046861663 0.0021997965
0.031348504 -0.048570827 0.0024172736
0.034637623 -0.049426615 0.0020237544
0.040772047 -0.048767537 0.0016141235
0.046029154 -0.04483667 0.0014768551
0.049574632 -0.040137105 0.0012020359
-0.049976237 -0.040549465 0.0016417261
-0.046253968 -0.04302904 0.0024887859
-0.039740756 -0.035830367 0.0013634318
-0.037663031 -0.042445295 0.0023879099
-0.03272694 -0.042161595 0.0024347121
-0.027908787 -0.044133741 0.0024355189
-0.022211669 -0.040391676 0.0019133376
-0.017172782 -0.039929334 0.0017895462
-0.011489979 -0.044270203 0.0020183155
-0.009870179 -0.043263625 0.0045280326
0.012667541 -0.042809382 0.0024278518
0.017528687 -0.042494088 0.002453251
0.022407986 -0.042153787 0.0024220007
0.027592732 -0.042778045 0.0023347915
0.032272425 -0.042311221 0.0024590378
0.036123291 -0.040381737 0.0023486372
0.042339329 -0.041393984 0.0023544296
0.04758215 -0.042436391 0.0024601361
0.051723853 -0.042604849 0.0023891535
-0.051019259 -0.040941168 0.0024037112
-0.046332054 -0.039772242 0.0021571778
-0.04263268 -0.037766624 0.0024563149
-0.037353504 -0.037579771 0.0023936632
-0.031288579 -0.037724152 0.0022747479
-0.026397273 -0.035606127 0.0021679304
-0.022859519 -0.038714629 0.002457211
-0.017325873 -0.037537813 0.0024260986
-0.012018966 -0.037451956 0.0022483526
-0.0098651126 -0.0379395 0.0045314496
0.012700398 -0.037748124 0.0027318464
0.016593495 -0.035315033 0.0021120207
0.022142377 -0.03568393 0.0018864332
0.026707012 -0.035713721 0.0022635851
0.030683134 -0.038912866 0.0022238642
0.037354346 -0.037549444 0.0023771282
0.041759722 -0.038470104 0.0022612528
0.047295332 -0.037342902 0.0023901821
0.049810018 -0.037067913 0.0015779248
-0.049524512 -0.029455565 0.0020661345
-0.047384638 -0.032627851 0.0024909659
-0.039908804 -0.031610996 0.0022078035
-0.035672374 -0.034980036 0.0022775421
-0.032329511 -0.032652073 0.0024339051
-0.028056828 -0.032548994 0.002370114
-0.022193134 -0.035685312 0.0023311514
-0.017457813 -0.032443728 0.0024262376
-0.012232564 -0.032214306 0.0019820407
-0.0098521532 -0.032032445 0.0045583285
0.012612145 -0.032632817 0.0025852968
0.017271416 -0.032442942 0.0023933116
0.021836262 -0.032907188 0.002354759
0.027181035 -0.032640312 0.0024257314
0.032449968 -0.033578854 0.0024277077
0.035789866 -0.032673877 0.0023233059
0.04172577 -0.03169978 0.0020984486
0.047448609 -0.032769226 0.0024656514
0.051414225 -0.032411378 0.0023239283
-0.051518764 -0.027280884 0.0023890815
-0.046375673 -0.02884054 0.0023119061
-0.04189669 -0.027758289 0.002447309
-0.037281852 -0.024775513 0.0018689118
-0.032627001 -0.027569368 0.002422
-0.027607592 -0.027786914 0.002417902
-0.022463245 -0.02726189 0.0024034821
-0.017727066 -0.026387673 0.0021533926
-0.012514447 -0.027449099 0.0019668343
-0.0098539721 -0.027689934 0.0045423964
0.012897483 -0.027156377 0.0022185028
0.017396623 -0.027539093 0.0025021895
0.022606298 -0.027441649 0.002410806
0.026080705 -0.027364941 0.0018705961
0.032426231 -0.027409226 0.0024258464
0.037315249 -0.027957633 0.0023961384
0.04195071 -0.02671296 0.0020634795
0.047189228 -0.027733216 0.0024316162
0.051693548 -0.027721461 0.0024386388
-0.046300407 -0.025246499 0.0015752971
-0.047618177 -0.022569289 0.0024174552
-0.042784855 -0.022618042 0.0023720004
-0.037449386 -0.022802137 0.0023923393
-0.032624412 -0.022382388 0.0023958802
-0.026895575 -0.022582905 0.0022087423
-0.021653552 -0.024957797 0.00239
-0.017635744 -0.022681927 0.0024220005
-0.010939358 -0.023812346 0.0023153045
-0.0098391064 -0.022621501 0.00457724
0.012700316 -0.022379559 0.0025890793
0.017374106 -0.019893432 0.0018626152
0.02242185 -0.022660136 0.0023899868
0.027450169 -0.022387853 0.0023901826
0.030480439 -0.023097768 0.0019466612
0.035773888 -0.024993006 0.0021456666
0.042608995 -0.022492183 0.0024084861
0.047153451 -0.023948602 0.0022807191
0.049191717 -0.017950719 0.0016253055
-0.051397923 -0.017941078 0.0024220007
-0.045872055 -0.016670708 0.0020359452
-0.042358231 -0.01765299 0.0024184887
-0.037615854 -0.017060529 0.0024546089
-0.031725682 -0.015752988 0.0019248637
-0.027553728 -0.017592626 0.0025017883
-0.022393329 -0.017927537 0.0024258469
-0.016661474 -0.014576054 0.0021355231
-0.012029226 -0.019716727 0.0022883175
-0.009786088 -0.017052051 0.0047309324
0.013234851 -0.016218653 0.0021114179
0.017531 -0.017595951 0.0024644537
0.022759004 -0.017482633 0.0024895677
0.027507003 -0.01738351 0.0024412319
0.032636274 -0.017404456 0.0024738878
0.037206754 -0.016441621 0.0020073445
0.040892396 -0.01520695 0.0017688909
0.046327043 -0.017391568 0.0024058721
0.051213056 -0.019943349 0.0024580464
-0.051545527 -0.012305051 0.0024864818
-0.047587488 -0.012749632 0.0023655486
-0.042128291 -0.012496787 0.0024447273
-0.037315384 -0.013091597 0.0023898603
-0.032109421 -0.012086875 0.0019956615
-0.02749154 -0.012356075 0.0024439304
-0.022063261 -0.01033127 0.0018722736
-0.017224768 -0.011452549 0.0019974767
-0.011999304 -0.012245026 0.0023259439
-0.0098713432 -0.012903901 0.0044529792
0.012485756 -0.012592552 0.0025762373
0.017359383 -0.013390364 0.0022671823
0.021024305 -0.012624673 0.001921583
0.027200269 -0.011352059 0.0018207622
0.032577451 -0.012692677 0.002468297
0.037464451 -0.012882925 0.0024265463
0.041427024 -0.0091323508 0.0016535982
0.047263704 -0.011908611 0.0021994051
0.0494035 -0.012318557 0.0024175884
-0.049119323 -0.0076407515 0.0024213197
-0.047283877 -0.0072478321 0.002482001
-0.041224468 -0.0098403487 0.0024841153
-0.036259778 -0.0080186706 0.0024142929
-0.031101432 -0.0084966058 0.0024841477
-0.026867278 -0.0051674047 0.0018406771
-0.021525139 -0.0082460176 0.0020463539
-0.017476721 -0.0088121016 0.0024318879
-0.011404815 -0.0079729175 0.0023297719
-0.011775578 0.0021386822 0.001322749
0.012153737 -0.009344779 0.0024641068
0.017296817 -0.0046918779 0.002013356
0.022632165 -0.0077188448 0.0023795478
0.026826002 -0.0097239651 0.0020950155
0.032412283 -0.0076523465 0.002413667
0.037631284 -0.0075486368 0.0023933116
0.040081199 -0.0099077942 0.0016792358
0.047260888 -0.0081029851 0.0023966373
0.050318774 -0.0079052234 0.0021089218
-0.048651073 -0.0032636882 0.0024347894
-0.045180511 -0.0024234084 0.0019531557
-0.040748358 -0.003650517 0.0018531795
-0.037270535 -0.0010080117 0.0023139631
-0.032314356 -0.0022392229 0.002011864
-0.027676204 -0.0026631746 0.0024109057
-0.022700889 -0.0026802747 0.0024053329
-0.016220892 -0.0051972717 0.0022589918
-0.012202684 -0.0024763548 0.0023119103
-0.0098320944 -0.0023891618 0.0045517227
0.012555467 -0.0026312238 0.0022855327
0.017695051 -0.0024516846 0.002436023
0.021303 -0.0033237161 0.0021662451
0.027413869 -0.002415135 0.0024412302
0.032677367 -0.0022173009 0.0024516615
0.037728291 -0.00093674741 0.0022386399
0.041963775 -0.005917205 0.0022622009
0.047495361 -0.0025499817 0.0024104617
0.049830064 -0.0036921471 0.0024168927
-0.050205484 -0.00043963737 0.0021772897
-0.047406089 0.0022874225 0.002399273
-0.042073779 0.0036190487 0.0022760269
-0.036703963 0.0019446418 0.0023861064
-0.030504595 0.0036484136 0.0020225088
-0.027505217 0.0034759461 0.0020618308
-0.021769866 0.0016868839 0.0024159229
-0.017816994 0.0027806505 0.0024511795
-0.012238466 0.0025799801 0.0024667769
-0.0097948443 0.0019989004 0.0046653976
0.011804509 0.00010035879 0.0026305534
0.017908275 0.0029579739 0.0021174161
0.020937109 0.00060711522 0.001663521
0.028140904 0.0021639329 0.0024316327
0.032843612 0.00012314151 0.0024242939
0.036609128 0.0027594613 0.0020246576
0.042684358 0.0027037282 0.0024339054
0.047080357 0.0041920156 0.0023786973
0.051394735 0.0021414093 0.0024267696
-0.051714361 0.0076276371 0.0024379946
-0.047203839 0.0067275134 0.0024487984
-0.04217435 0.0076593077 0.0020039957
-0.037370726 0.0075489189 0.0024454377
-0.032510769 0.007554925 0.0024473628
-0.027246101 0.0074903783 0.0022685851
-0.022576664 0.0061446661 0.0022029427
0.023981724 0.0010841796 0.0023397238
0.027397476 0.0088876775 0.0019982846
0.032235708 0.0092799757 0.0022978697
0.037186619 0.0077070259 0.0024037079
0.04159981 0.0098548215 0.0019939982
0.046075381 0.0072626248 0.0025037059
0.051744144 0.0077816178 0.0024442296
-0.051771604 0.012354323 0.0024431648
-0.046176873 0.01207442 0.0020197327
-0.042787652 0.012261987 0.0024928958
-0.037679691 0.012119394 0.0024398579
-0.03220471 0.01277056 0.0024470002
-0.027980803 0.012137445 0.002686217
0.02885573 0.011933107 0.0025938493
0.032401547 0.013816047 0.0020212131
0.03658333 0.012745328 0.0016089185
0.042545829 0.012897172 0.0023952145
0.048120756 0.012701255 0.0024168987
0.051470444 0.012749633 0.0023955815
-0.051940426 0.017550163 0.002387628
-0.043919735 0.013554309 0.0022485645
-0.042704355 0.017431175 0.0025015464
-0.037672393 0.017790508 0.002482001
-0.032393292 0.016776552 0.0023809599
-0.028442658 0.015508063 0.0020156337
0.029929604 0.01556587 0.0037470502
0.031252157 0.019568944 0.0017399065
0.037437998 0.017632611 0.002383865
0.042780902 0.017316341 0.0024083641
0.047439694 0.017471144 0.0023820007
0.051484589 0.01726575 0.0024749977
-0.05170022 0.022085357 0.0023735194
-0.046369039 0.018185372 0.0024424605
-0.040492821 0.02370402 0.0018047811
-0.037489448 0.022365564 0.0024068486
-0.031390682 0.020565325 0.0024216629
-0.029372264 0.022636037 0.0023667077
0.031854142 0.022525286 0.0024093001
0.036006428 0.020813292 0.0015556078
0.041583519 0.021940185 0.0023024706
0.047628004 0.022073559 0.0024567225
0.05184003 0.022562308 0.002483163
-0.051575921 0.027223522 0.0024094963
-0.047103945 0.027644344 0.002377358
-0.042570863 0.027446689 0.0024257312
-0.037319556 0.027484648 0.002444728
-0.03145548 0.024990983 0.0023243115
-0.029367464 0.027608916 0.0027740479
0.031379636 0.026926028 0.0020304285
0.036795788 0.028822858 0.0016532112
0.042357266 0.027138017 0.0024300646
