# .PCD v0.7 - Point Cloud Data file format
VERSION 0.7
FIELDS x y z
SIZE 4 4 4
TYPE F F F
COUNT 1 1 1
WIDTH 938
HEIGHT 1
VIEWPOINT 0 0 0 1 0 0 0
POINTS 938
DATA ascii
-0.021852221 -0.071548127 -0.010790752
-0.017162727 -0.071922503 -0.011872472
-0.012328836 -0.071914054 -0.01271304
-0.0073632579 -0.072039738 -0.01313541
-0.0025332293 -0.072130121 -0.013274491
0.0026934335 -0.072064199 -0.013378698
0.0074072354 -0.072173111 -0.012902366
0.012331759 -0.072000988 -0.012672148
0.017372591 -0.07172399 -0.012001026
0.021565739 -0.071439885 -0.010859706
-0.021916894 -0.067599617 -0.010848599
-0.017668843 -0.067538969 -0.01242239
-0.012386763 -0.067365333 -0.013757702
-0.007393572 -0.067335255 -0.01453099
-0.0026782416 -0.067493908 -0.014876452
0.0023304219 -0.067532972 -0.014892493
0.0074867783 -0.067337699 -0.014519155
0.012462679 -0.067483373 -0.013752718
0.017670652 -0.06747897 -0.012419677
0.021837639 -0.067632534 -0.010885367
-0.021803752 -0.062658511 -0.010898207
-0.017404854 -0.062383663 -0.01250627
-0.012316911 -0.062538631 -0.013775035
-0.0074724578 -0.062757812 -0.014522065
-0.0025723313 -0.062613115 -0.014881337
0.0024573759 -0.062658906 -0.014886635
0.0075498247 -0.06247903 -0.014509293
0.012447386 -0.062586732 -0.013746994
0.017550867 -0.062449198 -0.012458496
0.021993956 -0.062573761 -0.010819667
-0.021954913 -0.057658561 -0.010825373
-0.017264485 -0.057418749 -0.012551407
-0.012354805 -0.057767037 -0.013737388
-0.0076353056 -0.057502694 -0.014501004
-0.0026497105 -0.057545073 -0.014877765
0.0028446971 -0.057659939 -0.014868765
0.0076008709 -0.057685073 -0.014509152
0.012402663 -0.05733021 -0.013764568
0.017546769 -0.057580188 -0.012462551
0.02179591 -0.057479389 -0.010891212
-0.021852091 -0.052488156 -0.010876339
-0.017542219 -0.052772924 -0.012464884
-0.012538036 -0.052408375 -0.013732566
-0.0075085773 -0.052563403 -0.014460722
-0.0025611268 -0.052713275 -0.014881849
0.0024369133 -0.052496031 -0.014887584
0.0074698571 -0.052472968 -0.014524884
0.012597372 -0.052514397 -0.013713498
0.017364977 -0.052786451 -0.012518655
0.021854727 -0.05228667 -0.010873978
-0.021651812 -0.047558609 -0.010959688
-0.017417934 -0.047386382 -0.012498628
-0.012527277 -0.047592271 -0.01373435
-0.0073695048 -0.047281258 -0.014536416
-0.0027268343 -0.047660563 -0.014874205
0.0024234096 -0.04766107 -0.014888204
0.0075892936 -0.047414061 -0.014507193
0.012336103 -0.047367476 -0.013777383
0.017696075 -0.047651328 -0.012415574
0.021914998 -0.047425516 -0.010847642
-0.021677326 -0.042590182 -0.010950372
-0.017410653 -0.042555135 -0.01249899
-0.012591664 -0.042666327 -0.013718589
-0.0074647586 -0.042651303 -0.014526594
-0.0025905326 -0.042588774 -0.01488049
0.0024165029 -0.042398747 -0.014888523
0.0074821464 -0.042635296 -0.014523595
0.012671328 -0.042561442 -0.013709895
0.0176728 -0.042600773 -0.012425634
0.022161033 -0.042538859 -0.010747677
-0.02193751 -0.037450578 -0.010840473
-0.017526146 -0.037325572 -0.012466301
-0.01266961 -0.03762085 -0.013704089
-0.0075100493 -0.037796017 -0.014515314
-0.0024664714 -0.037734699 -0.014886218
0.0025113632 -0.037545722 -0.014884147
0.0075090751 -0.037613127 -0.014516738
0.012477217 -0.03765782 -0.013743592
0.017683875 -0.037593331 -0.012420148
0.02182476 -0.037348304 -0.010885268
-0.021768507 -0.032371536 -0.01091278
-0.017561283 -0.032700468 -0.012453998
-0.01262025 -0.032376312 -0.013723723
-0.0074242195 -0.032578114 -0.014529652
-0.0023955249 -0.032476727 -0.014889491
0.0025284772 -0.032585233 -0.014883357
0.0075093461 -0.032495011 -0.014516379
0.012545764 -0.032511074 -0.013729857
0.017466525 -0.032683071 -0.012485513
0.021615218 -0.032545932 -0.010975162
-0.021828273 -0.027595375 -0.01088847
-0.017509475 -0.027614137 -0.012473961
-0.012267872 -0.027896361 -0.013722166
-0.0074594663 -0.027326107 -0.014524763
-0.0023366897 -0.027448526 -0.014892201
0.0024158813 -0.027510444 -0.014888553
0.0076504094 -0.027845582 -0.014495364
0.012590045 -0.027640611 -0.013721526
0.017459134 -0.027541161 -0.012489213
0.021905886 -0.027579155 -0.010847547
-0.021881793 -0.022486042 -0.010862426
-0.017490573 -0.022551896 -0.012401955
-0.012516399 -0.022326915 -0.013736299
-0.0075076125 -0.022161217 -0.014518873
-0.0025606239 -0.022360614 -0.014881872
0.0025250795 -0.022366714 -0.014883511
0.007633565 -0.022570755 -0.014498948
0.012444925 -0.022524714 -0.013750275
0.017407231 -0.022383427 -0.01250382
0.021696704 -0.022820832 -0.010905369
-0.02185322 -0.017133635 -0.010873532
-0.017419726 -0.01765185 -0.012501152
-0.012570941 -0.017562695 -0.013726496
-0.0073031723 -0.017826626 -0.014537332
-0.0025942696 -0.017366916 -0.014880325
0.0024746819 -0.017302889 -0.014885838
0.0074012107 -0.017499244 -0.014530927
0.012490313 -0.017366199 -0.01375135
0.017692192 -0.017558273 -0.01242166
0.021811102 -0.017543681 -0.010891188
-0.021945868 -0.012413152 -0.010837421
-0.01767874 -0.012587578 -0.01242582
-0.012700112 -0.012664347 -0.013701193
-0.0076498627 -0.012575431 -0.014500412
-0.002481072 -0.012433057 -0.014885543
0.002487232 -0.01251531 -0.014885256
0.0074410094 -0.012523252 -0.014527077
0.012483737 -0.012335951 -0.013746576
0.01757025 -0.012442215 -0.01245317
0.021880545 -0.012740334 -0.010854446
-0.02187288 -0.0075444924 -0.0108724
-0.017551273 -0.0073752543 -0.012464569
-0.012718269 -0.0076237582 -0.013690941
-0.0074731275 -0.0078329705 -0.014523416
-0.002273567 -0.0072844131 -0.014895118
0.0025827778 -0.0076678712 -0.014880855
0.007631354 -0.0073346659 -0.014503174
0.012143176 -0.0077060619 -0.013770293
0.017462213 -0.007517972 -0.012488424
0.021921108 -0.0074180579 -0.010844302
-0.02184893 -0.0025524823 -0.010872263
-0.017610945 -0.0022483624 -0.012441716
-0.012524947 -0.0024676418 -0.013738352
-0.0075580878 -0.0026018135 -0.014509838
-0.0026051912 -0.0030465783 -0.014862316
0.0024828417 -0.0026458402 -0.014885458
0.0071748085 -0.0027642185 -0.014558601
0.012422108 -0.0027661326 -0.013757666
0.017460262 -0.0025870805 -0.012482315
0.021880614 -0.0027942886 -0.010821289
-0.021924116 0.0027748337 -0.010842774
-0.017467597 0.001715227 -0.012427609
-0.012371382 0.0026987977 -0.013768522
-0.0075001786 0.0024079084 -0.01451955
-0.0025307951 0.0023999226 -0.01488325
0.0027074104 0.0020904446 -0.014840113
0.0073553245 0.0027075952 -0.014538184
0.012508096 0.002389072 -0.013738714
0.017464206 0.002498612 -0.012478663
0.021781832 0.0023340364 -0.010909477
-0.021820741 0.0076770461 -0.010888472
-0.017737007 0.0076091518 -0.012402969
-0.01228204 0.0074213822 -0.013756052
-0.0076370728 0.0070679034 -0.014487363
-0.0027001372 0.0075036385 -0.014875442
0.0026069747 0.007344787 -0.014866011
0.0075270515 0.0069064945 -0.01449965
0.012624716 0.0075058658 -0.013710038
0.017356083 0.0074447682 -0.012520425
0.021947527 0.0073777437 -0.010835387
-0.021922067 0.012528665 -0.010843791
-0.017297581 0.012545801 -0.012499127
-0.012407374 0.012453176 -0.01376152
-0.0074080355 0.012592992 -0.014531028
-0.0024097352 0.012358969 -0.014888835
0.0025007951 0.012356708 -0.014884631
0.0076091895 0.012689533 -0.014504256
0.012566064 0.01238299 -0.013729742
0.017663466 0.012584724 -0.01242367
0.022013878 0.012351877 -0.010808254
-0.02175617 0.017171266 -0.010912377
-0.017187448 0.017153038 -0.012508542
-0.012722961 0.017153619 -0.013693759
-0.0074147237 0.017516116 -0.014529359
-0.0022706143 0.017542917 -0.014895248
0.002458527 0.017570313 -0.014886584
0.0074597737 0.017439377 -0.014521888
0.012182934 0.017217811 -0.013802268
0.017544566 0.017522376 -0.012462764
0.021938762 0.017350405 -0.010840917
-0.021609521 0.022113994 -0.010953899
-0.017469188 0.022442989 -0.012488037
-0.012601888 0.022443788 -0.013719823
-0.0073626926 0.022422064 -0.014533842
-0.0025305522 0.022412825 -0.014883257
0.0024821323 0.022617869 -0.014885493
0.0076293154 0.022716925 -0.014504534
0.012313264 0.022031905 -0.013775101
0.017290695 0.022506578 -0.012533744
0.022093194 0.022118989 -0.010770177
-0.021282427 0.025336625 -0.010631003
-0.017449057 0.024970522 -0.011315505
-0.012390004 0.025998892 -0.011845907
-0.0076155607 0.027256679 -0.012550862
-0.0026973647 0.027717883 -0.014039141
0.0024994705 0.027432332 -0.014107016
0.0075860196 0.026559638 -0.012486439
0.012111696 0.025874576 -0.012106831
0.01738519 0.025567658 -0.011209709
0.021525789 0.025299868 -0.010613112
-0.010047395 0.032777302 -0.0100787
-0.0075414591 0.032227185 -0.01193135
-0.0024451204 0.032437045 -0.01393038
0.0025390172 0.03257297 -0.013917866
0.0072548632 0.032411952 -0.01192669
-0.010048633 0.037090003 -0.010078888
-0.0078021777 0.037666664 -0.011737135
-0.0025091181 0.037465028 -0.013909531
0.0024899303 0.037686594 -0.013918054
0.0075006755 0.037662745 -0.011939992
0.010038367 0.038617224 -0.01008809
-0.010067498 0.04312595 -0.010057891
-0.0073305597 0.042047121 -0.012011864
-0.0025622309 0.04243442 -0.013901828
0.0024940432 0.042237166 -0.013900819
0.0073957359 0.042618744 -0.012019648
0.010036848 0.043776862 -0.01008912
-0.0072542485 0.045435846 -0.011145917
-0.0020674006 0.045529705 -0.012218258
0.0022559331 0.045550015 -0.011995496
0.0069443053 0.045433331 -0.011311243
-0.030002899 -0.071021639 -0.0050617666
-0.027287822 -0.07183978 -0.0069230804
-0.022732386 -0.072305657 -0.0077323024
-0.017377472 -0.07229761 -0.0075293384
-0.012388483 -0.072500132 -0.0076618637
-0.0074675535 -0.072500132 -0.0074977605
-0.0026506495 -0.072500102 -0.0075373631
0.0023795462 -0.072500139 -0.0076197106
0.0075337877 -0.072500132 -0.0075879307
0.012471729 -0.072500125 -0.0076163714
0.017603936 -0.072500125 -0.007503463
0.022593034 -0.072305821 -0.0078861099
0.027265133 -0.071727939 -0.0070604119
-0.030029364 -0.0674555 -0.0050208736
-0.027374214 -0.066999726 -0.0074101198
-0.024301769 -0.067839153 -0.0096505312
0.024356989 -0.067324579 -0.0096189929
0.027531618 -0.06738203 -0.0074438183
0.030028518 -0.066440746 -0.0050221826
-0.030028367 -0.062779389 -0.0050224154
-0.027428852 -0.062315777 -0.0074980101
-0.024377434 -0.063000582 -0.0096073169
0.024414016 -0.062781312 -0.0095864255
0.027550716 -0.062509261 -0.0074221934
0.030016419 -0.061849765 -0.0050408803
-0.030038321 -0.057765029 -0.0050070272
-0.027383918 -0.056964859 -0.007296884
-0.024477873 -0.057614453 -0.0095499558
0.023155749 -0.05676638 -0.0098389555
0.027671648 -0.057536796 -0.0073118825
0.030036725 -0.055452798 -0.0050094971
-0.03002812 -0.052807458 -0.0050227959
-0.027205052 -0.052488636 -0.00742043
-0.024314536 -0.052089062 -0.0096432399
0.024300123 -0.052422911 -0.0096514719
0.027548922 -0.052451894 -0.0074169948
0.030038651 -0.050087322 -0.0050065201
-0.030014787 -0.045142531 -0.0050433963
-0.02764577 -0.04737192 -0.007340508
-0.02434195 -0.047910728 -0.0096275825
0.024327736 -0.047437273 -0.0096357008
0.027571537 -0.046775278 -0.0073594167
0.030007899 -0.046404377 -0.0050540445
-0.030031243 -0.040797215 -0.0050179632
-0.027653666 -0.042327166 -0.0073338789
-0.024375118 -0.042626843 -0.0096086375
0.024312567 -0.042134207 -0.0096443631
0.027562471 -0.04224436 -0.0072996994
0.030016458 -0.042820029 -0.005040816
-0.030006418 -0.03687587 -0.00505633
-0.027908813 -0.03756116 -0.0071230526
-0.024365567 -0.037543833 -0.009614096
0.024361728 -0.036908869 -0.0096162893
0.027526945 -0.037523977 -0.0074292906
0.030023787 -0.038462196 -0.0050294902
-0.027631732 -0.032521989 -0.0073164999
-0.022973934 -0.0326261 -0.0096216016
0.024349794 -0.032083742 -0.0096231019
0.027403796 -0.032473613 -0.0075308844
0.030029763 -0.031895168 -0.005020258
-0.027592711 -0.027448662 -0.0073994976
-0.024417961 -0.027223488 -0.0095841754
0.024354298 -0.027665747 -0.0096205315
0.027787982 -0.027704591 -0.0072259698
0.030020952 -0.027519077 -0.0050338749
-0.027644975 -0.022331566 -0.0073384559
-0.024437746 -0.02278298 -0.0095728738
0.024382554 -0.022895945 -0.0096043944
0.027695412 -0.02256345 -0.0072995964
0.030022111 -0.022824921 -0.0050320812
-0.030040011 -0.016490484 -0.0050044172
-0.027625198 -0.017191254 -0.0073404904
-0.024441324 -0.017700754 -0.0095708268
0.024343846 -0.017573981 -0.0096264975
0.027209222 -0.018245723 -0.0073968931
0.030006804 -0.018283991 -0.0050557321
-0.030016176 -0.012791394 -0.00504125
-0.027590862 -0.012443077 -0.0073780245
-0.022844266 -0.013446928 -0.0095871082
0.024317892 -0.012430119 -0.0096413232
0.027697595 -0.012648482 -0.007281302
0.030025013 -0.012501362 -0.0050275968
-0.030029248 -0.0068025044 -0.0050210534
-0.027366713 -0.0073015229 -0.0073900511
-0.024356712 -0.0075232191 -0.0096191522
0.023044672 -0.0092790257 -0.0096111074
0.027474353 -0.0077603902 -0.0072050658
0.030042375 -0.0085242717 -0.0050007678
-0.03001352 -0.0016262464 -0.0050453572
-0.027518857 -0.0024048027 -0.0074237678
-0.024352195 -0.0021768187 -0.0096217329
0.023597306 -0.0035649294 -0.0097376201
0.027635405 -0.0028654032 -0.0072192512
0.030031903 -0.0041140146 -0.0050169467
-0.030031573 0.0040063746 -0.0050174561
-0.027818531 0.0026945795 -0.0072107948
-0.024356132 0.0024545807 -0.0096194856
0.024350697 0.0028521996 -0.0096225832
0.027526006 0.002497728 -0.0074388538
0.030024173 0.00058608985 -0.005028897
-0.030020341 0.0061308369 -0.0050348141
-0.02761039 0.0073205694 -0.0072765741
-0.024255732 0.0074156127 -0.0096768215
0.024300545 0.0071693463 -0.0096512279
0.027417075 0.007480965 -0.0074207052
0.030034717 0.0077569401 -0.0050125984
-0.030005228 0.012783106 -0.0050581675
-0.0275007 0.012530765 -0.0073619206
-0.024414185 0.012298732 -0.0095863268
0.023394531 0.012409937 -0.0097515397
0.027634483 0.012456227 -0.0073480536
-0.030022122 0.017905751 -0.0050320607
-0.027578268 0.017614933 -0.0074031716
-0.02303881 0.016760154 -0.0097121028
0.023897672 0.018570226 -0.0096520837
0.027574144 0.017300161 -0.0073951632
0.03001458 0.016390039 -0.0050437171
-0.030015942 0.02435869 -0.0050416146
-0.027493753 0.022433799 -0.0074574663
-0.024301322 0.022690549 -0.0096507855
0.024169145 0.022472853 -0.0097262738
0.027541934 0.022372719 -0.0074222847
0.030021075 0.024377638 -0.0050336816
-0.030040465 0.02522669 -0.0050037135
-0.026734302 0.025340389 -0.0066684266
-0.021509539 0.024390539 -0.0075233458
-0.017452773 0.026056414 -0.0074392413
-0.012047588 0.026840299 -0.0076995147
0.012474679 0.02757958 -0.0077896682
0.017550536 0.026032837 -0.0075844498
0.022422742 0.025648763 -0.0072988779
0.026905347 0.025331063 -0.0067102518
-0.011626374 0.031757999 -0.0077122059
0.011891781 0.032396071 -0.0075385678
-0.011864399 0.037476197 -0.0075785969
0.01201781 0.037394404 -0.007318947
-0.011797974 0.04252496 -0.007652896
0.011911379 0.042373829 -0.0075683715
-0.011315178 0.044218183 -0.0073921392
-0.0075908215 0.045626868 -0.0075917374
-0.0023230508 0.046116743 -0.0071709272
0.0021210127 0.046725389 -0.0069502601
0.0074517173 0.045592088 -0.0074685975
0.011381106 0.045384698 -0.0070137689
-0.0013083131 0.052587487 -0.0054331329
0.0014843115 0.052451972 -0.0053909649
-0.0010116021 0.0571987 -0.0052461317
0.00090402673 0.057057433 -0.0052768984
-0.00043551566 0.062083814 -0.0050695138
0.0006141293 0.061455052 -0.0050789923
-0.031117747 -0.071722455 -0.0023182398
-0.02759959 -0.07250011 -0.0024477332
-0.022643769 -0.072500132 -0.0025730757
-0.017480044 -0.072500117 -0.0025969469
-0.0124154 -0.072500125 -0.0026083181
-0.0075915228 -0.072500102 -0.0025194895
-0.0027881502 -0.072500132 -0.0026563215
0.0023426798 -0.072500117 -0.0026030042
0.0074498295 -0.072500117 -0.0021658335
0.012514387 -0.072500132 -0.0023634813
0.017694797 -0.07250011 -0.0026857529
0.022675119 -0.072500095 -0.002376386
0.027829105 -0.072500117 -0.0023715391
0.031133847 -0.071744703 -0.002212029
-0.031220751 -0.067478359 -0.0026256389
0.031065566 -0.066646188 -0.0026780963
-0.031231852 -0.062437084 -0.002662099
0.031210821 -0.062601604 -0.0026670387
-0.030570587 -0.056934085 -0.0028862653
0.030990569 -0.057281055 -0.0026781831
-0.031294644 -0.052491989 -0.0024471183
0.03057052 -0.052177414 -0.0025970661
-0.031236511 -0.047495078 -0.0026734637
0.031284869 -0.04748971 -0.0024279042
-0.031241678 -0.042338923 -0.0025982698
0.031033913 -0.042739328 -0.0026907518
-0.031168334 -0.036926396 -0.002439369
0.031297937 -0.037382748 -0.0024798207
-0.031286471 -0.032643311 -0.0025154087
0.031156488 -0.032657802 -0.0027534678
-0.03130446 -0.02749004 -0.0024465481
0.031315424 -0.027489103 -0.0024612825
-0.031290848 -0.022541793 -0.0025034186
0.031218166 -0.022683218 -0.0025871308
-0.031199288 -0.017661346 -0.0027345812
0.031209119 -0.01764025 -0.0027324995
-0.030850166 -0.012600532 -0.0029620607
0.031224197 -0.012407094 -0.0026145678
-0.031221315 -0.0075983251 -0.0026068643
0.03126492 -0.0074375365 -0.0025966784
-0.031281054 -0.0026012531 -0.002508339
0.031113664 -0.0025659387 -0.0029008456
-0.031227976 0.0026269383 -0.0027258808
0.03100308 0.0025682005 -0.0027676299
-0.031217588 0.0076282313 -0.0026295162
0.031017279 0.0067066895 -0.0028704915
-0.031190712 0.012487891 -0.0026867548
0.031171381 0.012584685 -0.0027979943
-0.03098152 0.016866086 -0.0026099682
0.031237485 0.01738858 -0.0026213306
-0.030973151 0.022754205 -0.0026173932
0.031251013 0.022609111 -0.0025692496
-0.030882813 0.025244601 -0.0021507961
-0.027483203 0.025518466 -0.0024320409
-0.022499265 0.025893848 -0.0024797532
-0.017502969 0.026275834 -0.0024857728
-0.013348971 0.026996419 -0.0025696345
0.013964447 0.027842587 -0.0027414709
0.016941784 0.025569795 -0.0025861457
0.022551695 0.025893353 -0.0024030339
0.027354617 0.025528686 -0.0024636176
0.030922297 0.025264373 -0.002017559
-0.013877278 0.032438047 -0.0024477514
0.01384525 0.032178972 -0.0025713472
-0.013588005 0.037295498 -0.0024566806
0.013816428 0.036591504 -0.0025438666
-0.013871394 0.042553835 -0.0024670626
0.013841063 0.042198386 -0.0025909811
-0.012245542 0.045514416 -0.0022781168
-0.006918232 0.046644244 -0.0022457729
-0.0040705707 0.047952965 -0.0042388113
0.0042551435 0.047878243 -0.0040657865
0.0067853886 0.046322487 -0.0020051985
0.011956255 0.045548733 -0.0023019363
-0.0053957668 0.052728556 -0.0013182622
-0.0039882394 0.052739087 -0.0038113235
0.0040754327 0.05238926 -0.0037677209
0.0054060011 0.05210514 -0.0014440864
-0.0052260505 0.057363149 -0.00094123138
-0.0037972839 0.057632923 -0.0035575298
0.0036585368 0.057563022 -0.0036556176
0.0052445172 0.057349946 -0.0008397132
-0.0050847963 0.061471313 -0.00043517636
-0.0032046093 0.062463056 -0.0033504996
0.0034410919 0.061998099 -0.0032770713
0.0050788969 0.060950346 -0.00071186194
-0.0022247203 0.06577649 -0.0023735375
0.0021663902 0.06726411 -0.0023281043
-0.00091274595 0.070243545 -0.0012299547
0.0010346354 0.071025878 -0.0009102418
-0.0310416 -0.071700945 0.0023602506
-0.027148616 -0.071840554 0.0025319268
-0.021901798 -0.071580708 0.0023128258
-0.017328566 -0.07207422 0.0022661802
-0.01242103 -0.07250011 0.0022833899
-0.0074813357 -0.07250011 0.0024619075
-0.0026554519 -0.072304539 0.0021462722
0.0023489834 -0.071579017 0.0023976914
0.0070245601 -0.071729638 0.0023350846
0.012343569 -0.07159435 0.0023298261
0.017658146 -0.072500125 0.0024954691
0.022720071 -0.072500125 0.0024339065
0.027025204 -0.071568675 0.0022864148
0.031225333 -0.071657449 0.0022107535
-0.03126419 -0.067342177 0.0025097306
0.030590117 -0.066101924 0.0024454105
-0.031221917 -0.062410522 0.0026741074
0.030504398 -0.061865918 0.0022238321
-0.031319857 -0.057453603 0.0024287626
0.031222338 -0.057261724 0.0027073515
-0.030925427 -0.052043267 0.002347335
0.030935001 -0.051777583 0.002387624
-0.0310685 -0.046818547 0.0024847277
0.031290099 -0.047638997 0.0024585761
-0.031173771 -0.042475902 0.0027805166
0.031235054 -0.04235502 0.002563803
-0.031298239 -0.037633028 0.002532206
0.030974621 -0.037068717 0.0024534201
-0.031228472 -0.032544296 0.0025974393
0.029981937 -0.031994853 0.0022720608
-0.031070134 -0.027739521 0.0023502135
0.031256787 -0.027570706 0.0025515025
-0.031231888 -0.02249185 0.0025547452
0.031252034 -0.022434045 0.0026238107
-0.031200591 -0.017579326 0.0026967716
0.031127319 -0.017392872 0.0025500827
-0.03117797 -0.012649008 0.0027375543
0.031315669 -0.012293684 0.0024386102
-0.031306524 -0.0074524097 0.0024411797
0.031233318 -0.0074465843 0.0026332359
-0.030809674 -0.0026971954 0.0027457478
0.031242575 -0.0025408105 0.002662339
-0.031285305 0.0024207402 0.0025033201
0.030425293 0.00191504 0.0025072403
-0.03132068 0.0074485806 0.0023882247
0.030412596 0.0073176278 0.0025260753
-0.031227883 0.012062526 0.0024739252
0.030784016 0.012371379 0.002687146
-0.031086305 0.016753774 0.002589046
0.031233881 0.017586002 0.0026425866
-0.030954333 0.022519695 0.0025346824
0.031358495 0.022528067 0.002320688
-0.030739091 0.025290165 0.0019434839
-0.027207725 0.025091028 0.0022898205
-0.022664739 0.025882466 0.0024849712
-0.017104451 0.025525076 0.0023433573
-0.014007971 0.027722249 0.0027218815
0.013848615 0.027610959 0.0025171377
0.017523229 0.026271395 0.0026116497
0.022501359 0.025895787 0.0023846515
0.027649956 0.025507405 0.0024452356
0.03091402 0.025272459 0.0017066896
-0.013499927 0.03218808 0.0024264758
0.013841545 0.032514516 0.0025603494
-0.013917204 0.035835709 0.0020485981
0.013850843 0.037552383 0.002528165
-0.01372968 0.042381488 0.0022725852
0.013978492 0.041915637 0.0024771488
-0.011955879 0.045541447 0.0024792186
-0.0067790179 0.0455628 0.002200539
-0.00419599 0.048197523 0.0041454644
0.0041577267 0.047890335 0.0041548507
0.0071228468 0.046514355 0.0024971024
0.011690163 0.044627875 0.0020725806
-0.0054187044 0.052423328 0.0012936166
-0.0038364432 0.053055059 0.0039553568
0.0035467618 0.052453667 0.0038670909
0.0053957165 0.052425709 0.0014372511
-0.0052416967 0.057351645 0.00090007554
-0.0036699043 0.057535995 0.0036907189
0.003605814 0.057768084 0.0037317995
0.0052143531 0.056866679 0.00116169
-0.00506747 0.061434653 0.0005932296
-0.0032770706 0.062605157 0.0032830387
0.0032572916 0.06271302 0.0033869657
0.0050826971 0.06128221 0.00054277666
-0.0021218364 0.066691406 0.0021716082
0.0025125223 0.066604108 0.0021993157
-0.0019059575 0.067649916 0.00032658569
0.00080971076 0.071302854 0.00092942774
-0.027168145 -0.071044743 0.0069791479
-0.022548398 -0.072376594 0.0076833833
-0.01734839 -0.072500117 0.0075795585
-0.012593419 -0.072500117 0.0073061544
-0.0076272376 -0.071662821 0.0072829006
-0.0026983267 -0.071862549 0.007369665
0.0024384151 -0.072500125 0.0076030581
0.0073272106 -0.072500132 0.0072775972
0.01298663 -0.071406677 0.0074271155
0.017101031 -0.07250011 0.0075054388
0.02264546 -0.072323419 0.0077101393
0.02710362 -0.070847422 0.0068556545
0.030026646 -0.071286879 0.0050250706
-0.0028432691 -0.041136049 -0.0022909623
-0.027765719 -0.067586958 0.0072278441
-0.023853391 -0.064027362 0.0093395663
0.024281269 -0.067606054 0.009662237
0.027444236 -0.067093559 0.0071230531
0.030003492 -0.069471709 0.0050608534
-0.030003987 -0.060819648 0.005060087
-0.027609359 -0.062128026 0.0072190952
-0.02426121 -0.062283389 0.0096736923
0.024289094 -0.062307864 0.0096577704
0.027496155 -0.062363029 0.0074642026
0.030025816 -0.062545083 0.0050263559
-0.02736821 -0.056847602 0.0072194394
-0.024340503 -0.057271402 0.0096284067
0.024360832 -0.057288565 0.0096167959
0.027453275 -0.057412252 0.0072955606
0.030017158 -0.056409352 0.0050397348
-0.030021066 -0.052248817 0.0050336919
-0.027647715 -0.052537031 0.0073343106
-0.024478192 -0.052286502 0.0093296822
0.024404788 -0.052775934 0.0095916959
0.027258758 -0.051373754 0.0072477413
-0.030022468 -0.048766863 0.0050315298
-0.027013673 -0.046614822 0.0071057458
-0.024260368 -0.047788315 0.0096741766
0.024408253 -0.047594421 0.0095897187
0.027597088 -0.047474716 0.0073659266
-0.030026678 -0.043775067 0.0050250222
-0.02783169 -0.042491462 0.0071747242
-0.024381062 -0.042695414 0.0096052447
0.024467405 -0.042396069 0.009555934
0.027590513 -0.042026065 0.0071924059
0.030025044 -0.043558646 0.0050275479
-0.030006355 -0.03762798 0.0050564278
-0.027457515 -0.037654925 0.0071065943
-0.024297513 -0.037315693 0.0096529592
0.024389982 -0.037259441 0.0096001513
0.027754778 -0.037278861 0.0072279298
-0.030021057 -0.032993421 0.005033711
-0.027594073 -0.032606747 0.0073877205
-0.024407689 -0.032747112 0.0095900372
0.024261583 -0.032749217 0.0096734818
0.026937034 -0.032099295 0.0070919241
0.030017605 -0.032824904 0.0050390465
-0.030008199 -0.027656738 0.0050535807
-0.027369063 -0.027768383 0.0072612148
-0.024338912 -0.027991498 0.0096293176
0.024322638 -0.027155064 0.0096386112
0.027579844 -0.02712708 0.0072097541
-0.030031087 -0.020198528 0.0050182114
-0.027865397 -0.022632681 0.0071531152
-0.024362735 -0.022588175 0.0096157109
0.024261005 -0.022262819 0.0096738106
0.027532915 -0.022597605 0.007412788
0.030010026 -0.022366123 0.0050507514
-0.030036584 -0.018248606 0.0050097136
-0.027801478 -0.017800033 0.0069946451
-0.02445771 -0.018054441 0.0095614679
0.024358535 -0.016948059 0.0096181119
0.027632313 -0.017294163 0.0073533915
-0.027691735 -0.012482783 0.0072927107
-0.024465436 -0.012863993 0.0095377425
0.024210067 -0.012170312 0.0092700282
0.026976187 -0.011925681 0.0071163145
-0.030033115 -0.0089884978 0.0050150733
-0.027470125 -0.0075691263 0.0073070833
-0.024435645 -0.0076957014 0.0095740734
0.024319584 -0.00762195 0.0096403547
0.026833016 -0.0079781413 0.0071129007
0.030017883 -0.0059559462 0.0050386135
-0.030010683 -0.0035112444 0.0050497381
-0.027816676 -0.0025820429 0.007197889
-0.024315627 -0.0027507504 0.009642615
0.023624584 -0.00250442 0.0089636808
0.027535161 -0.0024873139 0.0074190125
0.030023072 -0.0022142804 0.0050305957
-0.030015325 0.0034694253 0.0050425678
-0.027250158 0.002056876 0.0072500836
-0.024291502 0.0025847908 0.0096563958
0.024248876 0.0026004722 0.0096807349
0.0277327 0.0023870552 0.0072660302
0.030000027 0.0043299571 0.005066203
-0.030018544 0.0081559997 0.0050375955
-0.027530247 0.0073400019 0.0074357656
-0.024306921 0.0075538638 0.0096475882
0.024330346 0.0074394019 0.0096342089
0.027221235 0.0066812648 0.0073381034
0.030015934 0.0073437928 0.0050416254
-0.030024629 0.011296859 0.0050281901
-0.027341787 0.012329747 0.007230917
-0.024250707 0.012214717 0.0096796919
0.024386311 0.012339057 0.0096022505
0.02766286 0.012424003 0.0071438146
0.030009765 0.012893426 0.0050511584
-0.03002733 0.017799847 0.0050240154
-0.027534606 0.017523434 0.0074246218
-0.023995347 0.017524691 0.0092225457
0.024439627 0.017045878 0.0095718
0.027450977 0.017637225 0.0072076633
0.030022407 0.018350715 0.0050316257
-0.030022636 0.022179699 0.0050312644
-0.027439719 0.021754729 0.0071259541
-0.024348672 0.022823544 0.0096237445
0.024267327 0.022535516 0.0096701989
0.027186379 0.022629183 0.0073734
0.030021142 0.020777158 0.0050335759
-0.026467718 0.024436263 0.0063751745
-0.022474999 0.025634041 0.0073910304
-0.017695123 0.026017301 0.0076331692
-0.012556101 0.027496109 0.0077541368
0.01203398 0.02638323 0.0075662108
0.017551726 0.026039103 0.0075461562
0.022497101 0.025600577 0.007737725
0.026900342 0.0253521 0.0065286644
-0.011435546 0.031009592 0.0073350752
0.011918243 0.032582927 0.0075141401
-0.011631452 0.036271468 0.0075561702
0.011694255 0.03763802 0.0078608505
-0.011531809 0.041254133 0.0074360725
0.01167642 0.041749068 0.0072374716
-0.011007509 0.045409378 0.0068493425
-0.0071868175 0.045068923 0.0074104406
-0.0022148532 0.046542298 0.0071680038
0.0023139927 0.04668222 0.0069963587
0.0076152086 0.045212649 0.0072628884
0.011184421 0.045449108 0.0068429303
-0.0011743051 0.052266695 0.0054813577
0.001549205 0.052577026 0.0053693652
-0.00095800718 0.057630554 0.0052298321
0.0012512556 0.057271689 0.0051236679
-0.00061704271 0.06173316 0.0050669154
0.0006426255 0.061512712 0.0050747134
-0.021815766 -0.071552359 0.010702993
-0.017119071 -0.071119279 0.01165
-0.012705237 -0.071483493 0.012534854
-0.0077392892 -0.072123967 0.012786855
-0.002182048 -0.071186356 0.013378168
0.002606577 -0.071134299 0.012981713
0.0074154651 -0.072073065 0.012990832
0.012421277 -0.071599238 0.012647182
0.016917149 -0.071724437 0.011525884
0.020142477 -0.070838295 0.010600015
-0.021947654 -0.067548141 0.010837382
-0.017404145 -0.06758263 0.012272532
-0.012633591 -0.067591451 0.013716677
-0.0074362056 -0.066899732 0.014236389
-0.002609364 -0.067698382 0.014879627
0.0025464273 -0.066495441 0.014548042
0.0076504922 -0.066007428 0.014198415
0.012514881 -0.067283429 0.013486139
0.017291604 -0.066371746 0.012087167
0.021443116 -0.066213593 0.010610302
-0.021849442 -0.062494978 0.010873081
-0.0173037 -0.062482316 0.012537386
-0.01236862 -0.061935622 0.013526616
-0.0074155219 -0.06268549 0.014528848
-0.0024003787 -0.062557824 0.014889264
0.0023043614 -0.06136182 0.014414014
0.0070474315 -0.061598137 0.01402392
0.012585827 -0.062705457 0.013724598
0.017173668 -0.062081721 0.012334446
0.021985009 -0.062613115 0.010822497
-0.021874368 -0.057648771 0.010869198
-0.017378049 -0.057456397 0.01229318
-0.012459183 -0.057334613 0.013503592
-0.0077645751 -0.057162244 0.014061417
-0.0027764216 -0.056924019 0.014692757
0.0021249368 -0.057094421 0.014830105
0.0074730651 -0.057267096 0.014439657
0.012393905 -0.057538901 0.013759714
0.017329672 -0.056567274 0.012219765
0.021484122 -0.05698286 0.010829224
-0.021794707 -0.052252151 0.010900849
-0.017618107 -0.051872399 0.012161743
-0.012480992 -0.052561756 0.013742788
-0.007168184 -0.052140445 0.014305327
-0.00271163 -0.051850632 0.014694409
0.0022142946 -0.051695481 0.014611728
0.00733008 -0.052611601 0.014541422
0.012430126 -0.052402031 0.013758066
0.017667405 -0.052425168 0.012424891
0.021912595 -0.052337848 0.01085004
-0.021934319 -0.047441598 0.010834838
-0.017415583 -0.047489289 0.012493667
-0.012629064 -0.047102515 0.013701282
-0.007862987 -0.047302324 0.014281118
-0.0025178874 -0.047441017 0.014883845
0.0022379186 -0.04722894 0.014683055
0.0076446193 -0.046889987 0.014463543
0.012407527 -0.047432199 0.013619795
0.017667037 -0.047399357 0.012402435
0.021856349 -0.047479462 0.010876835
-0.021765895 -0.04134376 0.010587942
-0.017471543 -0.04262073 0.012484816
-0.012539051 -0.042436972 0.013728052
-0.0071706222 -0.042023931 0.013932282
-0.002532755 -0.042006832 0.014822698
0.0027300746 -0.042029552 0.01463121
0.0073389974 -0.042263772 0.014066569
0.012109383 -0.042659387 0.013540435
0.01654231 -0.042298526 0.012257751
0.021386553 -0.040977377 0.010512593
-0.021746814 -0.037432108 0.01091204
-0.016643845 -0.036443602 0.012260341
-0.012296038 -0.037526831 0.013781948
-0.0077000819 -0.03552321 0.013674612
-0.0027302846 -0.037068583 0.014567791
0.0029293844 -0.036897477 0.01471802
0.0076547689 -0.037822299 0.014320323
0.012516186 -0.037927113 0.013459506
0.017548146 -0.037548006 0.012458824
0.021239817 -0.036193933 0.010732321
-0.021869227 -0.032398276 0.010868552
-0.017691152 -0.032532476 0.012373909
-0.012374552 -0.032842077 0.013329731
-0.0073241107 -0.031904895 0.01431262
-0.002443437 -0.032546896 0.014609396
0.0022379952 -0.031699564 0.014446695
0.0076072821 -0.032476544 0.014504624
0.012243563 -0.032698199 0.013562595
0.017268233 -0.032270402 0.012327775
0.021739095 -0.032387152 0.010922847
-0.021977913 -0.027540104 0.010817999
-0.016905559 -0.027451962 0.012162024
-0.012702886 -0.027333941 0.013701811
-0.0070633716 -0.027448911 0.014442989
-0.0023716651 -0.027394108 0.014890593
0.0024757979 -0.027808025 0.014884051
0.0070722592 -0.027491603 0.014477839
0.012463307 -0.027569784 0.01375007
0.017350772 -0.027656201 0.012517559
0.02154294 -0.027661445 0.010847651
-0.021576606 -0.022443194 0.010627303
-0.017269507 -0.022492725 0.012546172
-0.01261836 -0.022538153 0.013713606
-0.0075140693 -0.022814129 0.014438686
-0.002753088 -0.022494705 0.014872999
0.0027379626 -0.022407003 0.014873691
0.0078790318 -0.022857703 0.014326062
0.012405475 -0.022363797 0.013753443
0.017731361 -0.022116845 0.012400575
0.021723175 -0.022114061 0.010861075
-0.021449216 -0.017566469 0.010234306
-0.017667698 -0.017482052 0.012042025
-0.012719828 -0.017445238 0.013416726
-0.0076627648 -0.01783102 0.01438311
-0.0024210468 -0.016885187 0.014638698
0.0022982301 -0.017397895 0.014707629
0.0073469006 -0.017609322 0.014293607
0.012488211 -0.017282581 0.013738736
0.017313061 -0.01778326 0.012294126
0.021821106 -0.017477933 0.01088916
-0.021913795 -0.012517205 0.010846745
-0.017657397 -0.012337727 0.01243032
-0.012415721 -0.012757049 0.013753712
-0.0070920908 -0.012558012 0.014342312
-0.0022559946 -0.012418592 0.014725987
0.0025321245 -0.012495206 0.014883188
0.0074920659 -0.012408203 0.014516116
0.012530008 -0.012652074 0.013660977
0.017425366 -0.012471847 0.012494554
0.021837024 -0.012678876 0.010877022
-0.021771489 -0.0081080003 0.010824412
-0.017717456 -0.0074587553 0.012409691
-0.012477163 -0.0074432027 0.01373955
-0.0077078934 -0.0081363926 0.014234873
-0.0025139782 -0.0078007272 0.014867086
0.0025051294 -0.007451402 0.014884435
0.0074494868 -0.0074438937 0.014522891
0.012502285 -0.0073979646 0.013490597
0.017313542 -0.0078024413 0.012294609
0.021876058 -0.0078434078 0.010835244
-0.021439562 -0.0021943715 0.010863017
-0.017324142 -0.0026746322 0.012526068
-0.012693777 -0.0025474278 0.013696614
-0.0071574147 -0.0021881652 0.014211416
-0.0026758295 -0.0029303769 0.014844702
0.0025456299 -0.0024844187 0.014882565
0.0074514821 -0.0030688846 0.014299105
0.012487354 -0.0030422129 0.013694897
0.017425142 -0.003435846 0.012032221
0.021974346 -0.003890723 0.010789108
-0.021374956 0.0013121995 0.010433275
-0.017591706 0.0023801038 0.012446637
-0.012469237 0.0025903028 0.013744309
-0.0071633989 0.0020500883 0.014482604
-0.0023395212 0.0022024286 0.014802082
0.002497524 0.0021610109 0.014580926
0.0072899293 0.0020597933 0.014329212
0.012094514 0.0020197683 0.013366953
0.01717826 0.0024033894 0.012474614
0.021791238 0.0021094265 0.010571051
-0.021800203 0.0076799588 0.010636336
-0.017138796 0.0070340042 0.012270082
-0.012393503 0.0071377382 0.01369878
-0.0073255086 0.0075214882 0.014541275
-0.0022280959 0.0070081786 0.01472292
0.0022028326 0.0066598644 0.014791553
0.0075668106 0.0074661262 0.014508631
0.012423523 0.0072649154 0.013561143
0.017573526 0.0064538559 0.01220752
0.0218259 0.0079224929 0.010789376
-0.021472797 0.01279835 0.01075586
-0.017596567 0.012036828 0.012155405
-0.012321382 0.012717466 0.013575524
-0.0075820177 0.01194682 0.014466316
-0.0025989595 0.01258882 0.014880107
0.0023304175 0.012071088 0.014677786
0.0072800978 0.012482541 0.014547609
0.012510286 0.01300874 0.013503565
0.017178873 0.012083566 0.01244539
0.021818886 0.012498553 0.010886931
-0.021577533 0.016549176 0.010570449
-0.017643901 0.017381551 0.012433782
-0.012395418 0.01771971 0.013761864
-0.0075108712 0.017280459 0.014520041
-0.0025133037 0.016891154 0.01464978
0.0025418224 0.015893234 0.014292198
0.0077169286 0.01758202 0.014494534
0.012516657 0.017434031 0.013709885
0.017334606 0.017453419 0.012409465
0.021486975 0.017672697 0.010769087
-0.021833874 0.022695001 0.010883654
-0.017435092 0.021625493 0.012419369
-0.011797401 0.021444675 0.01288608
-0.0075221141 0.021481695 0.014077839
-0.0025529496 0.022171393 0.014875482
0.002477851 0.021998186 0.014884183
0.0077985455 0.022541873 0.014375134
0.012268092 0.021955201 0.013576542
0.017069401 0.022778625 0.012296355
0.021802403 0.022187028 0.010640079
-0.021549154 0.025297321 0.010598758
-0.016843216 0.025708312 0.0111092
-0.012319995 0.025948538 0.011894261
-0.0075580841 0.026437623 0.012355229
-0.0025286218 0.027723806 0.01403962
0.0025211775 0.027232725 0.014131097
0.0076771704 0.026880091 0.012439153
0.012418121 0.025896477 0.01204254
0.016524849 0.023856359 0.011037063
0.021388792 0.02528033 0.010696975
-0.010045433 0.03414508 0.010084773
-0.0075906618 0.031948127 0.011904437
-0.0023329488 0.032337338 0.013800049
0.002227488 0.031909619 0.01386883
0.0073981509 0.032275654 0.011857411
0.010048293 0.032666244 0.010079429
-0.010051542 0.036876801 0.010078765
-0.0074369102 0.037406869 0.011674983
-0.0025120457 0.036185589 0.013759848
0.0024584273 0.037774272 0.013922924
0.0075694532 0.037255932 0.011551005
0.010081321 0.037480533 0.010043561
-0.010083073 0.042394444 0.01003979
-0.0074232225 0.040644601 0.011641412
-0.0025244481 0.042657252 0.013914996
0.0025803745 0.042591687 0.013906645
0.0071414229 0.040984128 0.011717841
0.0100647 0.042553611 0.010063898
-0.0067105913 0.045419302 0.011396635
-0.0023302305 0.045521665 0.012291903
0.0022329884 0.044790681 0.011790429
0.0070776399 0.045454916 0.011259391
