# .PCD v0.7 - Point Cloud Data file format
VERSION 0.7
FIELDS x y z
SIZE 4 4 4
TYPE F F F
COUNT 1 1 1
WIDTH 1108
HEIGHT 1
VIEWPOINT 0 0 0 1 0 0 0
POINTS 1108
DATA ascii
0.014837913 -0.065000005 -0.015741851
-0.026723927 -0.062944263 -0.016732974
-0.022502962 -0.063300915 -0.016996555
-0.017565338 -0.06322749 -0.017037541
-0.012541987 -0.063321695 -0.01716435
-0.0073357234 -0.063345917 -0.017107381
-0.0025320279 -0.063406385 -0.01707677
0.0024703741 -0.063434772 -0.017025048
0.0074482048 -0.063533008 -0.016981592
0.012596797 -0.063354842 -0.017124377
0.017438484 -0.063357703 -0.017144438
0.022460785 -0.063471034 -0.017043334
0.026691744 -0.062938705 -0.016783476
-0.02706176 -0.057683323 -0.016855616
-0.022612505 -0.05746571 -0.017500015
-0.017464126 -0.057683855 -0.017500017
-0.012323339 -0.05725652 -0.017500013
-0.0076678796 -0.057931136 -0.017500013
-0.0020212918 -0.057724755 -0.017500013
0.0026020142 -0.05748364 -0.017500019
0.007585689 -0.057679694 -0.017500015
0.012698092 -0.057851378 -0.017500013
0.017380234 -0.057723384 -0.017500013
0.022580868 -0.05773516 -0.017500013
0.026939835 -0.057625361 -0.016845703
-0.026965326 -0.052431725 -0.016830867
-0.022411764 -0.052433476 -0.017500013
-0.017557181 -0.05254174 -0.017500015
-0.012314162 -0.052481301 -0.017500013
-0.0078622289 -0.05238108 -0.017500013
-0.0027465648 -0.052309185 -0.017500009
0.0021862539 -0.052365702 -0.017500013
0.0073013976 -0.052292433 -0.017500011
0.012623993 -0.052377809 -0.017500017
0.017423799 -0.052594259 -0.017500011
0.022386659 -0.052560605 -0.017500013
0.026825011 -0.052535597 -0.016859662
-0.027008504 -0.04756717 -0.016755899
-0.022224952 -0.0474337 -0.017500017
-0.017355451 -0.04763981 -0.017500013
-0.012534479 -0.047343414 -0.017500015
-0.0074173114 -0.047390413 -0.017500011
-0.0023937791 -0.047464028 -0.017500009
0.0023087782 -0.047661088 -0.017500015
0.0074140546 -0.047791906 -0.017500013
0.012406246 -0.047588743 -0.017500013
0.017552955 -0.047219485 -0.017500015
0.022691548 -0.047685489 -0.017500011
0.026837645 -0.047490396 -0.016909553
-0.026894702 -0.042394761 -0.016806325
-0.022597458 -0.042496722 -0.017500013
-0.017565819 -0.04246841 -0.017500013
-0.012396651 -0.042482909 -0.017500013
-0.0075230803 -0.042259894 -0.017500013
-0.0023613847 -0.042610038 -0.017500015
0.0023933863 -0.042423766 -0.017500015
0.0073978482 -0.042297132 -0.017500015
0.0124331 -0.042657834 -0.017500009
0.017341934 -0.042636637 -0.017500017
0.02247222 -0.042680446 -0.017500017
0.027056096 -0.042636912 -0.016829873
-0.026925486 -0.037262615 -0.016869616
-0.02252724 -0.037284981 -0.017500011
-0.017557912 -0.037520941 -0.017500019
-0.012690842 -0.037646953 -0.017500017
-0.007383158 -0.037491795 -0.017500013
-0.0023529883 -0.037669208 -0.017500008
0.0023680083 -0.037455395 -0.017500015
0.0076214983 -0.037317779 -0.017500017
0.012428394 -0.037432812 -0.017500008
0.017386129 -0.037483823 -0.017500006
0.022415187 -0.037691526 -0.017500013
0.027016088 -0.037536312 -0.016752183
-0.026488939 -0.032504212 -0.016863504
-0.02238963 -0.032392841 -0.017500013
-0.017682247 -0.032542281 -0.017500019
-0.01242439 -0.03243722 -0.017500011
-0.0076134861 -0.032429084 -0.017500009
-0.0023655405 -0.032712035 -0.017500011
0.0024899403 -0.032428652 -0.017500013
0.0074218595 -0.032291446 -0.017500017
0.012289382 -0.032459661 -0.017500017
0.017406533 -0.032816261 -0.017500009
0.022394452 -0.033100128 -0.017481508
0.026727639 -0.032512076 -0.016908051
-0.026704906 -0.027370859 -0.016915878
-0.022504272 -0.027356319 -0.017500006
-0.017462349 -0.027497225 -0.017500009
-0.012769114 -0.027374666 -0.017500013
-0.0073647103 -0.027325109 -0.017500009
-0.0023688937 -0.027655235 -0.017493714
0.0024070696 -0.027597187 -0.017500013
0.0073063094 -0.027556052 -0.017500017
0.012648439 -0.02777059 -0.017500011
0.017683867 -0.027572425 -0.017500013
0.022416443 -0.027395936 -0.017500011
0.026813338 -0.027544046 -0.016923798
-0.026838582 -0.022575594 -0.016834831
-0.022310764 -0.022540348 -0.017500011
-0.01742848 -0.022475449 -0.017500017
-0.012542549 -0.022367105 -0.017500006
-0.0073352433 -0.022622252 -0.017500013
-0.0025408734 -0.022475667 -0.017500011
0.0027734053 -0.022554105 -0.017500011
0.0075665745 -0.022485461 -0.017500013
0.012511396 -0.022307323 -0.017500013
0.017441228 -0.022678394 -0.017500011
0.022622066 -0.022294367 -0.017500011
0.027035382 -0.022686096 -0.016677523
-0.026750978 -0.017772129 -0.016927911
-0.022438288 -0.017433196 -0.017500017
-0.017248051 -0.017747177 -0.017500011
-0.01251248 -0.017579913 -0.017500015
-0.0074522938 -0.017535819 -0.017500013
-0.002578493 -0.01763826 -0.017500017
0.0024134873 -0.017758187 -0.017500013
0.0074955607 -0.017708283 -0.017500011
0.0123073 -0.01719635 -0.017500013
0.017672202 -0.017673619 -0.017500013
0.022552017 -0.017400213 -0.017500008
0.026513655 -0.017967543 -0.016786188
-0.026816582 -0.012629271 -0.016835792
-0.022603439 -0.012765463 -0.017500017
-0.017409144 -0.012611138 -0.017500015
-0.012442316 -0.012876868 -0.017492739
-0.0077061453 -0.012459027 -0.017500011
-0.0028285428 -0.012594389 -0.017500013
0.0024380146 -0.012505566 -0.017500013
0.0075273272 -0.012466305 -0.017500013
0.012726083 -0.012411173 -0.017500011
0.017330684 -0.01281195 -0.017500008
0.022443507 -0.012511471 -0.017500015
0.026761591 -0.012382245 -0.016924892
-0.02678933 -0.0075542713 -0.016850058
-0.022556894 -0.0077277333 -0.017500011
-0.017261904 -0.0074337167 -0.017500009
-0.012324274 -0.0074358205 -0.017500008
-0.0077292388 -0.0075469692 -0.017500013
-0.0024156587 -0.0075000743 -0.017500013
0.0026395875 -0.0077079139 -0.017500009
0.0071934052 -0.007736159 -0.017493371
0.012580623 -0.0076035247 -0.017500017
0.017437134 -0.0074015693 -0.017500011
0.022696717 -0.0074916063 -0.017500011
0.027011206 -0.0074134734 -0.016753921
-0.026674235 -0.0024762442 -0.017083526
-0.022228522 -0.0030020974 -0.017500013
-0.017369632 -0.0023150973 -0.017500013
-0.012675649 -0.0023829434 -0.017500013
-0.0073018549 -0.0024685359 -0.017500011
-0.0024165153 -0.0026858074 -0.017500009
0.0025605448 -0.0029166078 -0.017500011
0.0076343231 -0.0024075382 -0.017500009
0.012542215 -0.0023463017 -0.017500008
0.017503578 -0.0028938875 -0.017500013
0.022179853 -0.0026070641 -0.017500009
0.026823601 -0.0024924541 -0.016822843
-0.026891647 0.0026686192 -0.016911704
-0.022370273 0.0025459894 -0.017500008
-0.017600328 0.0024213917 -0.017500008
-0.012345008 0.0022726471 -0.017500009
-0.0075962562 0.0024487581 -0.017500017
-0.0022438522 0.0018880831 -0.017492132
0.0026371467 0.0022416173 -0.017500013
0.0078243511 0.0026254791 -0.017500013
0.012165325 0.0025948833 -0.017500013
0.01738387 0.002516079 -0.017500017
0.022602621 0.0025624617 -0.017500013
0.026844405 0.0024570781 -0.016851677
-0.026605282 0.0072519784 -0.016945878
-0.022491686 0.0073364256 -0.017500013
-0.01747092 0.0076445537 -0.017500015
-0.012698834 0.0073166662 -0.017500009
-0.0077344086 0.0070702429 -0.017491555
-0.0024034274 0.0076896837 -0.017500008
0.002554687 0.0070576305 -0.017500011
0.007367122 0.0074732145 -0.017500013
0.012804145 0.0073237065 -0.017500015
0.017672179 0.0074297446 -0.017500008
0.022584619 0.0074626221 -0.017500011
0.026887724 0.0076527144 -0.016945237
-0.026838621 0.012543988 -0.016958619
-0.022376738 0.011790311 -0.017496726
-0.017295847 0.012413196 -0.017500015
-0.012515346 0.012619852 -0.017500015
-0.0073914109 0.012408704 -0.017500009
-0.0022924803 0.012436592 -0.017500015
0.0025064005 0.012417418 -0.017500013
0.0074562235 0.012456421 -0.017500009
0.012780713 0.01238766 -0.017500017
0.017567087 0.012274534 -0.017500002
0.022342041 0.012389738 -0.017500011
0.026294634 0.01138896 -0.016872587
-0.026434986 0.017105151 -0.016894296
-0.022390721 0.017679885 -0.017500013
-0.017610673 0.017688172 -0.017500015
-0.012775611 0.017608244 -0.017500006
-0.0075549413 0.017663503 -0.017500004
-0.0026109696 0.017425861 -0.017500015
0.0023767462 0.017571894 -0.017500011
0.0074859168 0.017459393 -0.017500015
0.01266617 0.017254774 -0.017500015
0.017421616 0.01771233 -0.017500011
0.022384331 0.017611224 -0.017500017
0.026859837 0.017788179 -0.016876034
-0.026948771 0.022425883 -0.016900631
-0.021815656 0.021965722 -0.017493322
-0.017384024 0.022604918 -0.017500011
-0.012653916 0.022655053 -0.017500015
-0.0074349786 0.022386637 -0.017500009
-0.002977927 0.022584807 -0.017500008
0.0023587237 0.022510691 -0.017500015
0.0073123774 0.022569513 -0.017500009
0.012518448 0.022746984 -0.017500017
0.017531345 0.022409 -0.017500017
0.022723079 0.02232923 -0.017500015
0.027002284 0.022419134 -0.016891625
-0.02683289 0.027501058 -0.016943647
-0.022438858 0.027395269 -0.017500013
-0.017663501 0.027709987 -0.017500011
-0.012340542 0.027473753 -0.017500017
-0.0077450718 0.027372785 -0.017500015
-0.0027412139 0.027192848 -0.017500011
0.0026918007 0.027573802 -0.017493261
0.0075608329 0.027564041 -0.017500015
0.012746233 0.027639033 -0.017500013
0.017866831 0.027520623 -0.017500009
0.022411054 0.027245877 -0.017500009
0.026845358 0.027434699 -0.016982291
-0.026926866 0.032470532 -0.016853703
-0.021794558 0.032151662 -0.017500013
-0.0176694 0.032186028 -0.017500006
-0.012532006 0.032239392 -0.017500015
-0.0071900715 0.032328807 -0.017500013
-0.0022868942 0.03240576 -0.017500019
0.0025428429 0.032858461 -0.017500015
0.0072423015 0.032496106 -0.017500008
0.012534393 0.032580007 -0.017500017
0.017434591 0.032758027 -0.017500009
0.022283016 0.032460038 -0.017500009
0.026937006 0.032612815 -0.016903736
-0.026865842 0.037515499 -0.016831007
-0.022161203 0.036950313 -0.017500015
-0.017164238 0.037522886 -0.017500011
-0.012360285 0.036594409 -0.017500013
-0.0074146409 0.037439417 -0.017500015
-0.0026516791 0.03745563 -0.017500013
0.0025361918 0.037440926 -0.017500011
0.0074347402 0.035066023 -0.017493686
0.012433413 0.037476789 -0.017500015
0.017785264 0.037878204 -0.017500009
0.022456005 0.037405707 -0.017500011
0.02689413 0.037683848 -0.016715556
-0.026823467 0.042388175 -0.016908539
-0.022557272 0.042521205 -0.017500009
-0.017313171 0.042602483 -0.017500017
-0.012220267 0.0410529 -0.017500017
-0.0073269056 0.042361561 -0.017500009
-0.0024728251 0.041871987 -0.017500011
0.0028859647 0.042423218 -0.017500013
0.0075008785 0.042718533 -0.017500013
0.012232419 0.042119779 -0.017500013
0.017567003 0.042256303 -0.017500015
0.022335552 0.04241319 -0.017500013
0.026459936 0.041460723 -0.016847337
-0.027028665 0.047546003 -0.016787419
-0.022357743 0.047601238 -0.017500013
-0.017375126 0.047311559 -0.017500017
-0.01264317 0.047833655 -0.017500011
-0.0074138264 0.047626011 -0.017500009
-0.0026530158 0.047063213 -0.017500015
0.0024456044 0.047702938 -0.017500004
0.0075357296 0.047444213 -0.017500011
0.012265362 0.047650296 -0.017500015
0.017059078 0.045890611 -0.017491808
0.022207329 0.047654387 -0.017500008
0.026795637 0.047396585 -0.016969884
-0.026814898 0.052421212 -0.016830944
-0.02239622 0.052094307 -0.017500011
-0.017423736 0.052566651 -0.017500013
-0.012390655 0.05216863 -0.017500015
-0.0077233105 0.052410237 -0.017500013
-0.0025179789 0.052775968 -0.017500013
0.0025279848 0.052697532 -0.017500011
0.0075996378 0.052438114 -0.017500015
0.012568562 0.052407604 -0.017500008
0.017659066 0.0523188 -0.017500008
0.022239123 0.052018233 -0.017500019
0.026789797 0.052781604 -0.016930915
-0.026888769 0.057483491 -0.016930891
-0.022502676 0.056153625 -0.017500011
-0.017368926 0.057545137 -0.017500017
-0.012727696 0.057741944 -0.017500009
-0.0074110413 0.057328466 -0.017500017
-0.0026411521 0.057183158 -0.017500013
0.0021568588 0.05625942 -0.017500011
0.0074711652 0.057568572 -0.017500011
0.0125539 0.057742275 -0.017500015
0.016964316 0.056217622 -0.017500017
0.022427704 0.057842445 -0.017500002
0.026921328 0.057394065 -0.016938565
-0.026871923 0.062734433 -0.016906723
-0.022638243 0.061476018 -0.017500013
-0.017227914 0.062138882 -0.017500009
-0.012481884 0.061060414 -0.017500013
-0.0077977842 0.062415715 -0.017500013
-0.0024908883 0.062322386 -0.017490916
0.0025711332 0.062485915 -0.017500008
0.0076373173 0.06244481 -0.017500008
0.012606871 0.062309813 -0.017500015
0.017386507 0.062311448 -0.017500015
0.022414999 0.062469997 -0.017500013
0.026801113 0.060996335 -0.016927881
-0.026322059 0.06500002 -0.016285103
-0.021924045 0.065000035 -0.016006559
-0.017735057 0.065000042 -0.016241532
-0.012339923 0.065000042 -0.016145924
-0.0078300359 0.063442498 -0.016267495
-0.0026179859 0.065000035 -0.016317425
0.0023672131 0.065000035 -0.016113225
0.0074009537 0.065000042 -0.016291326
0.012307697 0.065000035 -0.016371118
0.017662589 0.06482546 -0.016176755
0.022524349 0.065000035 -0.016317546
0.026119066 0.06500002 -0.01633678
-0.027090512 -0.063339613 -0.012476062
-0.022785928 -0.06500005 -0.012464269
-0.017075092 -0.063739814 -0.012671607
-0.012356021 -0.06500005 -0.012649615
-0.0075303954 -0.065000042 -0.012623414
-0.0025432687 -0.06500005 -0.01239631
0.0024455681 -0.06500005 -0.012538323
0.0078376122 -0.06500005 -0.012387012
0.012419225 -0.06500005 -0.012541126
0.017370025 -0.06500005 -0.012680413
0.022684405 -0.065000042 -0.012286424
0.026970845 -0.063118085 -0.012429198
-0.027335536 -0.056984261 -0.012585665
0.0275 -0.057432141 -0.012209398
-0.027499989 -0.052576516 -0.012340631
0.026771678 -0.051025331 -0.012639876
-0.027499989 -0.04753276 -0.012478192
0.027439781 -0.047268741 -0.012724916
-0.027499987 -0.042440727 -0.012646628
0.027499992 -0.042448089 -0.012326331
-0.027500009 -0.037324939 -0.012573382
0.027499996 -0.03761233 -0.012474034
-0.027500002 -0.032745231 -0.012295596
0.027162688 -0.031492848 -0.012531024
-0.027500009 -0.027403109 -0.012382095
0.027499996 -0.027630933 -0.01238577
-0.026949612 -0.022096559 -0.012597409
0.027499987 -0.022500085 -0.012757313
-0.027499989 -0.017497847 -0.012538741
0.027499987 -0.017496204 -0.012481098
-0.027499991 -0.012460438 -0.012552097
0.027499989 -0.012405708 -0.01228494
-0.027499989 -0.0074827513 -0.012381723
0.027499989 -0.0074064466 -0.012341419
-0.027499994 -0.0025753402 -0.012453784
0.027499979 -0.0023703733 -0.012652211
-0.027499987 0.002521184 -0.012227617
0.027499994 0.0025195887 -0.012621084
-0.027499996 0.0075966208 -0.012346279
0.027499994 0.0074992105 -0.012321034
-0.02701675 0.011836804 -0.012486035
0.027499979 0.012532674 -0.01264092
-0.027499996 0.017590323 -0.012243994
0.027499985 0.017532466 -0.012331876
-0.027499985 0.022609336 -0.012375895
0.027146844 0.022881046 -0.012823271
-0.026897863 0.026656618 -0.012237743
0.027499991 0.027343817 -0.012348943
-0.027499989 0.032372806 -0.012607974
0.027499994 0.03250264 -0.012793642
-0.027304389 0.037417851 -0.01264902
0.027500005 0.037885714 -0.012484678
-0.026879881 0.041131813 -0.012707906
0.027085578 0.042535216 -0.012465528
-0.027500005 0.047444932 -0.012614843
0.027051654 0.047119118 -0.012492035
-0.027499994 0.052414879 -0.012496638
0.0275 0.052536994 -0.012515751
-0.027499991 0.05746574 -0.012208332
0.027499977 0.057658594 -0.012489905
-0.027499996 0.062401667 -0.012615729
-0.011359877 0.06499999 -0.010299266
0.0020707073 0.06499999 -0.012250913
0.0275 0.062443215 -0.012497315
-0.026413126 0.065000035 -0.012342672
-0.022548197 0.065000042 -0.012390331
-0.017230639 0.06500005 -0.012792492
-0.012105671 0.063818224 -0.012353663
-0.0075239949 0.06500005 -0.012358421
-0.0024260315 0.064305753 -0.012452532
0.0024822066 0.06500005 -0.012320946
0.0076934821 0.065000042 -0.012531543
0.012543675 0.065000042 -0.012411172
0.017624563 0.065000042 -0.012403358
0.022301968 0.065000042 -0.012381881
0.026177445 0.06500002 -0.012459599
-0.007756413 -0.065000005 -0.0060173203
-0.027192455 -0.063326947 -0.007461675
-0.022469539 -0.06500005 -0.0073263589
-0.017591309 -0.06500005 -0.0074041593
-0.012518795 -0.06500005 -0.0072035417
-0.007043995 -0.064549103 -0.0078046755
-0.0025877655 -0.06500005 -0.0073453337
0.0027466926 -0.064388253 -0.0075978027
0.0075813597 -0.065000042 -0.0073719164
0.012251764 -0.064423122 -0.007610952
0.01722835 -0.065000042 -0.0075720358
0.022286464 -0.062732935 -0.0077089989
0.026783137 -0.062449928 -0.007832149
-0.026862752 -0.056590598 -0.0078321472
0.027499994 -0.057605997 -0.0076884245
-0.027499994 -0.052321423 -0.0075485078
0.027499991 -0.052423779 -0.0075174016
-0.027499976 -0.047336657 -0.0075474298
0.027215287 -0.046408698 -0.0077060489
-0.027197249 -0.042129651 -0.0075485739
0.026995391 -0.042421456 -0.0076618162
-0.027499983 -0.037528254 -0.0077613317
0.026770841 -0.035409823 -0.0077929087
-0.027499983 -0.032610651 -0.007477317
0.027103458 -0.031426791 -0.0076383133
-0.027499996 -0.027352927 -0.0073577608
0.027500009 -0.027489029 -0.007367793
-0.027067257 -0.022481646 -0.0075508067
0.027499983 -0.022616124 -0.0076349499
-0.026966589 -0.017796516 -0.0074788202
0.027499989 -0.017454587 -0.0076653245
-0.027499989 -0.012641111 -0.0075617717
0.027499976 -0.012473838 -0.0075795203
-0.026971312 -0.0081151081 -0.0076922649
0.027499987 -0.0075589241 -0.0075412071
-0.027499992 -0.0025423495 -0.0073801707
0.027227975 -0.0030925528 -0.0075745448
-0.026602667 0.0015637995 -0.0077646929
0.026888851 0.0025068801 -0.0076120296
-0.027499994 0.0074765556 -0.007357216
0.027499979 0.0074375705 -0.0071630264
-0.027160326 0.012436014 -0.0076515777
0.02705304 0.012699227 -0.0072611687
-0.027499996 0.017430812 -0.0074205603
0.027152687 0.016578797 -0.0077379784
-0.027499983 0.022345096 -0.0075560547
0.027499991 0.02264788 -0.0072731921
-0.027499983 0.027485842 -0.0075442134
0.026509862 0.02733678 -0.0072060884
-0.027499987 0.03256125 -0.0075511499
0.027185513 0.031992596 -0.0075045857
-0.027500002 0.037583683 -0.0076474021
0.027499994 0.037279435 -0.0073438673
-0.027254067 0.042015467 -0.0075696097
0.02716119 0.042344678 -0.0078923535
-0.027499992 0.047397722 -0.0073736976
0.027499989 0.04758573 -0.0075162072
-0.027495479 0.051696584 -0.0075647673
0.02683665 0.051369183 -0.0076053636
-0.027499994 0.05738645 -0.0071138064
0.027499983 0.057475962 -0.0072562983
-0.027499989 0.062654644 -0.0074424837
-0.0068519483 0.06499999 -0.0090363286
0.012780035 0.06499999 -0.0081249271
0.018531905 0.06499999 -0.007349683
0.027035113 0.062384486 -0.0077732792
-0.026349297 0.065000035 -0.0070378915
-0.021783905 0.064213015 -0.0075010699
-0.017527029 0.06500005 -0.0074305967
-0.012668157 0.06500005 -0.0074043781
-0.007523648 0.065000042 -0.0075442917
-0.0025434748 0.065000042 -0.0073402426
0.0020350658 0.065000042 -0.0076372325
0.0076097338 0.065000042 -0.0074939774
0.012614487 0.065000042 -0.0073559806
0.017492341 0.06500005 -0.0075280145
0.022438725 0.065000042 -0.0074274442
0.026242837 0.064468384 -0.0077804932
-0.027036745 -0.063133702 -0.0025433796
-0.022039047 -0.063856311 -0.0029437742
-0.017469401 -0.06500005 -0.0023802021
-0.012380763 -0.06500005 -0.0023828764
-0.0073303399 -0.065000042 -0.0027298729
-0.0017991093 -0.063319832 -0.0028630244
0.0023074665 -0.065000042 -0.0026156555
0.0077233026 -0.06500005 -0.0026939528
0.012509371 -0.06500005 -0.0027722614
0.017803745 -0.06500005 -0.0023137513
0.022351429 -0.06500005 -0.0023082988
0.027053438 -0.063465558 -0.0026955514
-0.027499977 -0.057558957 -0.0024738174
0.027499987 -0.057576112 -0.0025770308
-0.02745018 -0.052168164 -0.0029146608
0.027499983 -0.052590497 -0.0023696991
-0.026979139 -0.046053071 -0.0026950475
0.027499983 -0.047273323 -0.0021994703
-0.027452677 -0.041914538 -0.0024610204
0.027499985 -0.042408265 -0.0027076909
-0.026951723 -0.036743961 -0.0026351404
0.027499994 -0.03733018 -0.0022324258
-0.027499991 -0.03245588 -0.0026820407
0.027499983 -0.032467388 -0.0025078533
-0.027499996 -0.027521653 -0.0025826939
0.027499994 -0.027747124 -0.0025953334
-0.027499989 -0.022691509 -0.0025346298
0.027499991 -0.022871897 -0.0026017618
-0.027499994 -0.017581437 -0.0023480903
0.027500005 -0.017269017 -0.0022771845
-0.026845498 -0.012412316 -0.0025462955
0.027499985 -0.01254001 -0.0025570062
-0.027274013 -0.0072746663 -0.0027721282
0.027499991 -0.0076375292 -0.0023405505
-0.027499983 -0.0026905888 -0.0027185373
0.027499994 -0.0022740224 -0.0022600344
-0.027499985 0.0024705748 -0.0023526712
0.027499989 0.0025110058 -0.002727594
-0.026863232 0.0070028901 -0.0028430677
0.026905498 0.0068552014 -0.0027260375
-0.026909206 0.012601569 -0.0027585863
0.026934994 0.012738382 -0.0025307944
-0.027499996 0.017686803 -0.0025280085
0.026928786 0.016915105 -0.00268984
-0.027499985 0.022243368 -0.0025755945
0.027499991 0.022624703 -0.0023238941
-0.027499998 0.027245928 -0.0025276984
0.026753768 0.027277756 -0.002870349
-0.027443226 0.031825058 -0.0026353721
0.027499989 0.03253448 -0.0022993311
-0.026427127 0.036755893 -0.0028572544
0.027499987 0.037421584 -0.0024864508
-0.027499991 0.042573377 -0.0024584122
0.027496176 0.042302199 -0.0025743677
-0.027499989 0.047744058 -0.0025479237
0.027500002 0.047363531 -0.0025240243
-0.027499989 0.052532077 -0.0023288988
0.027071526 0.052064128 -0.0024864399
-0.027499996 0.057931319 -0.0024750857
0.027499983 0.057432767 -0.0025660486
-0.026364028 0.061315075 -0.0030153461
-0.017867539 0.06499999 -0.0047968728
0.027499983 0.062412217 -0.0023376036
-0.026257822 0.065000035 -0.0024215421
-0.022746945 0.065000042 -0.0028162748
-0.017123338 0.06500005 -0.0028307852
-0.01234261 0.06500005 -0.0024770624
-0.00738869 0.063507654 -0.0026087242
-0.0024834652 0.06500005 -0.0027024292
0.0024670914 0.064252377 -0.002568675
0.0074988292 0.06500005 -0.0025930484
0.011846133 0.064698018 -0.0026707009
0.017492374 0.06500005 -0.0025447181
0.022352237 0.06500005 -0.0022728792
0.02632015 0.065000035 -0.0027320695
-0.02405702 -0.065000005 0.0010925074
0.012253294 -0.065000005 0.0010887668
-0.027088374 -0.063217849 0.0022349688
-0.021887438 -0.064579196 0.0022107724
-0.017496513 -0.06500005 0.0025817929
-0.012510668 -0.064769305 0.0022548593
-0.0067681093 -0.064410605 0.0027039992
-0.0028461015 -0.063946523 0.002508265
0.0025958586 -0.06500005 0.002541346
0.0075977026 -0.064528763 0.0023890971
0.012629248 -0.065000042 0.0023286354
0.016986646 -0.064759575 0.0024882923
0.022560891 -0.065000042 0.0026621511
0.026712671 -0.063301951 0.0020930122
-0.027499991 -0.057846997 0.0026842728
0.027500002 -0.057836931 0.0021947371
-0.027499983 -0.052577689 0.0025876965
0.027492806 -0.05158681 0.0025617543
-0.027493522 -0.047338329 0.0024452852
0.027378934 -0.047037851 0.0023475667
-0.026799202 -0.042211723 0.0023419135
0.027499998 -0.042650748 0.0023614052
-0.02701718 -0.036164548 0.0019853637
0.027492763 -0.037585769 0.0022033958
-0.027385859 -0.031294636 0.0023013439
0.027022144 -0.032470468 0.0022607278
-0.027499987 -0.027756974 0.0023930101
0.027499987 -0.027452905 0.0024878429
-0.027499992 -0.022399867 0.0024703504
0.027499976 -0.022644464 0.0026104946
-0.027500009 -0.01744226 0.002563948
0.027401229 -0.016590629 0.0025147926
-0.027499991 -0.012575694 0.0025613206
0.02734009 -0.012754322 0.0026716937
-0.027499994 -0.00743041 0.002187527
0.027499983 -0.0076795509 0.0026882321
-0.027235815 -0.0023620119 0.0018995143
0.027499996 -0.0025055199 0.0019897986
-0.0275 0.0027738414 0.0026507105
0.027144754 0.0018398191 0.0023797094
-0.027499981 0.0076002521 0.0022658533
0.027499994 0.0078772483 0.0027386292
-0.027499992 0.012361754 0.0026704983
0.027499983 0.012525519 0.0025551533
-0.027496498 0.016500037 0.0021712952
0.027499994 0.017287048 0.0024644656
-0.02725354 0.022222772 0.0021896425
0.027394647 0.022870608 0.002304903
-0.027299535 0.026515745 0.002065269
0.027499991 0.027384004 0.0027581975
-0.027499991 0.032673534 0.0027201911
0.027499992 0.032463297 0.0023542061
-0.027499976 0.037768718 0.0022933597
0.027499983 0.037450273 0.0024791528
-0.026837844 0.040899746 0.0018798315
0.027499994 0.042525668 0.002607008
-0.026922317 0.046609338 0.0024682856
0.027499991 0.047490042 0.0024823451
-0.027499991 0.051810462 0.0022065835
0.027499996 0.052444786 0.0026193261
-0.027321609 0.057042897 0.0021349962
0.027499994 0.057357594 0.0023115936
-0.027491597 0.062673472 0.002868813
0.021474041 0.06499999 0.0028299754
0.027499994 0.062793575 0.002496215
-0.026250245 0.065000042 0.0023136979
-0.022495251 0.064100362 0.0022914051
-0.017598717 0.06500005 0.0025694901
-0.01186446 0.063921593 0.0021258106
-0.0074648825 0.06500005 0.0026516311
-0.0023088155 0.063814141 0.002331068
0.0022082711 0.06413798 0.0023049929
0.0076284492 0.065000042 0.0027317621
0.012355668 0.06500005 0.0023708362
0.017032059 0.06500005 0.0023317849
0.02209351 0.064078547 0.0018390674
0.02534467 0.064826585 0.0022014843
0.0069824234 -0.065000005 0.0075800372
0.019524578 -0.065000005 0.0050795171
-0.026956268 -0.063302085 0.0073879436
-0.022298317 -0.064876094 0.0071799788
-0.017428868 -0.06500005 0.0073683541
-0.012113812 -0.063906416 0.0073759621
-0.0071582193 -0.063658476 0.0066435765
-0.0022970831 -0.06500005 0.0075947405
0.0022966834 -0.065000042 0.0075870012
0.0068522496 -0.061234493 0.0069488683
0.012133876 -0.06444864 0.0073505738
0.017339567 -0.06500005 0.0076737069
0.022588257 -0.065000042 0.0072663324
0.026315803 -0.06148427 0.0071729477
-0.027499994 -0.057294119 0.0073858653
0.02646351 -0.055880081 0.0066570439
-0.026895639 -0.051399991 0.0075073498
0.027499991 -0.052361142 0.0077508087
-0.027499996 -0.047426231 0.007684479
0.027499992 -0.047401667 0.0075214044
-0.027499991 -0.042691171 0.0075876792
0.026845237 -0.04196541 0.0074347649
-0.026790783 -0.037105225 0.0070843939
0.027499985 -0.037484381 0.0072912583
-0.027499991 -0.03254218 0.0075449231
0.026860463 -0.031371843 0.0071672658
-0.027499992 -0.027646136 0.0076144654
0.026953403 -0.026423234 0.0073590963
-0.027101343 -0.02277175 0.0073850974
0.027185313 -0.022391081 0.0071078716
-0.027499994 -0.017524539 0.0075241695
0.027499996 -0.01707682 0.0074153901
-0.027499989 -0.012605749 0.0075635649
0.026803864 -0.012843302 0.0073738135
-0.027491951 -0.0064580259 0.0072926362
0.027085394 -0.006840473 0.0071499362
-0.026886776 -0.0032599878 0.0072174529
0.027144507 -0.0028768352 0.0071388809
-0.027499992 0.0024067149 0.0076711257
0.027499992 0.0025728839 0.0076093045
-0.027500005 0.007307346 0.0073794071
0.027390473 0.0068081971 0.007542246
-0.027010823 0.012030818 0.0073410841
0.027499992 0.01251279 0.0077297073
-0.027499996 0.017610567 0.0075529087
0.026845237 0.017130535 0.007462963
-0.027500005 0.022515707 0.0075480035
0.027487902 0.022481492 0.0072006825
-0.027499996 0.027354758 0.0074799806
0.026979038 0.025765022 0.0070063286
-0.027499983 0.032432046 0.0076113311
0.027370069 0.030359073 0.0068961838
-0.027499994 0.037533332 0.0075518768
0.027499991 0.037579253 0.0076174452
-0.027499983 0.042447727 0.0076378314
0.027448861 0.042885005 0.00722516
-0.027499983 0.047667563 0.0075300317
0.026845237 0.047414131 0.0076187439
-0.027390035 0.052399348 0.0072178054
0.027446488 0.052680057 0.0072091511
-0.026949985 0.056851942 0.0074800351
0.027499987 0.057461116 0.0074579911
-0.027499977 0.062307246 0.0077256788
0.027499691 0.062664591 0.0074707419
-0.02611151 0.065000035 0.0077862372
-0.022119788 0.065000042 0.0073019238
-0.017017305 0.06500005 0.0074330335
-0.012616787 0.064928293 0.0070345723
-0.0074865646 0.06500005 0.0072106938
-0.0027485937 0.065000042 0.0076144147
0.0025436163 0.06500005 0.0071752546
0.0075367414 0.06500005 0.0073957974
0.012424141 0.064796597 0.0072535207
0.017505014 0.065000042 0.0074553504
0.022426844 0.064166039 0.0073416275
0.026197866 0.065000035 0.0071858033
-0.0051032444 -0.065000005 0.013115259
-0.026829556 -0.062851109 0.012651131
-0.022048693 -0.062965371 0.012224009
-0.017675864 -0.06500005 0.012545359
-0.01247906 -0.064727105 0.012352835
-0.0069969045 -0.065000042 0.012042174
-0.0025693807 -0.062039495 0.011714285
0.002396917 -0.063776977 0.012243725
0.0075065242 -0.063484587 0.012230787
0.012496693 -0.06500005 0.012443768
0.017339058 -0.06500005 0.012457654
0.022546245 -0.06500005 0.012374364
0.027049707 -0.063511133 0.01261774
-0.027499983 -0.057577439 0.012315338
0.027499991 -0.057651263 0.0124382
-0.027499994 -0.052534107 0.012327046
0.02749997 -0.052255362 0.012453738
-0.027499987 -0.047453575 0.012681532
0.027499994 -0.047608528 0.012261827
-0.027499981 -0.042412888 0.012459625
0.026617968 -0.041565306 0.011951784
-0.02749476 -0.037216101 0.011998989
0.026867812 -0.036646556 0.012462231
-0.026963269 -0.032595862 0.012090987
0.027499996 -0.032498658 0.012295432
-0.027499976 -0.02743195 0.012512099
0.027182654 -0.027055347 0.01229466
-0.027499994 -0.022555623 0.012621557
0.026074603 -0.02235163 0.011546245
-0.026920438 -0.016973281 0.01213837
0.027383236 -0.017950054 0.012278377
-0.027499991 -0.012610996 0.012529027
0.027499985 -0.012633841 0.012415898
-0.02728398 -0.0065048775 0.012113833
0.027121989 -0.0072660954 0.012034011
-0.027499996 -0.0027126882 0.012449455
0.027499994 -0.0021703627 0.012571293
-0.027255975 0.0026320608 0.012394601
0.026491148 0.0032315499 0.011931921
-0.027499998 0.0076221572 0.012648498
0.027251845 0.0075302478 0.012164536
-0.027499985 0.012511343 0.012590855
0.027499998 0.012524395 0.012372579
-0.027499987 0.017586438 0.012611461
0.027499991 0.017605979 0.012399273
-0.027499981 0.022531327 0.012346582
0.026071437 0.020661114 0.011903953
-0.027401622 0.026685705 0.012398412
0.027499992 0.027567172 0.012546715
-0.027500009 0.032580279 0.01240327
0.027499998 0.03236866 0.012500342
-0.0272453 0.036959276 0.012162887
0.027287489 0.037148468 0.012059968
-0.027361436 0.042159889 0.012051413
0.026707049 0.041044623 0.01161555
-0.027499989 0.04754689 0.012219139
0.027499983 0.04748499 0.012689977
-0.026732106 0.049783561 0.012214979
0.026961243 0.051721051 0.012112335
-0.027500004 0.057645425 0.012370124
0.027499992 0.057682186 0.012714854
-0.027500007 0.062381141 0.012568713
0.0017118726 0.06499999 0.010977799
0.027499992 0.062451579 0.012414849
-0.026247386 0.065000035 0.012513352
-0.022464437 0.064280748 0.011920275
-0.017024051 0.064952947 0.011970484
-0.01290242 0.062607832 0.011814923
-0.007634785 0.06500005 0.012394165
-0.0027603914 0.062988654 0.012323515
0.0023261418 0.063617066 0.012195732
0.0072457534 0.065000042 0.012470785
0.012662347 0.064804651 0.012463457
0.017440716 0.064610191 0.012083959
0.022106351 0.064392343 0.01245113
0.026285175 0.065000035 0.011940923
0.0086177308 -0.065000005 0.015318068
-0.026779579 -0.062833764 0.016742833
-0.022481335 -0.063507825 0.017021367
-0.01740443 -0.063226826 0.017136022
-0.012322277 -0.062922321 0.016884819
-0.0074140299 -0.063448727 0.016906034
-0.0025100112 -0.06200967 0.016753584
0.0020869875 -0.062577426 0.01682898
0.0071534086 -0.062436901 0.017040463
0.012503219 -0.063295171 0.017072661
0.017248696 -0.062793076 0.016659677
0.02254175 -0.063368216 0.017029835
0.026740491 -0.063186131 0.016736368
-0.026399367 -0.056998678 0.016490642
-0.022323871 -0.057452194 0.017500017
-0.017452003 -0.056885045 0.017093671
-0.011933564 -0.056002744 0.017144674
-0.0076209353 -0.057423577 0.017500017
-0.0023137492 -0.057691205 0.017045487
0.0018037779 -0.056910548 0.017065698
0.0066830455 -0.054938529 0.017273184
0.012603302 -0.057716675 0.017500015
0.017432239 -0.057206776 0.017500008
0.02249876 -0.057516258 0.017500013
0.026749479 -0.057527218 0.016683117
-0.026829684 -0.052436344 0.016935132
-0.022175971 -0.052540537 0.017500004
-0.017501831 -0.052231651 0.017500008
-0.012195708 -0.052553598 0.016953122
-0.0075753569 -0.052401073 0.017500006
-0.002443379 -0.052217927 0.017500009
0.0022585376 -0.050313111 0.016923811
0.0074318899 -0.052616037 0.017500015
0.012679256 -0.052480139 0.017500015
0.017343421 -0.052358612 0.017500015
0.022399509 -0.052424759 0.017500006
0.026827184 -0.052445032 0.016871508
-0.02697074 -0.047626697 0.016928194
-0.021839619 -0.046513576 0.01681374
-0.017262718 -0.047367752 0.017391579
-0.012481821 -0.047413528 0.017500011
-0.0072157909 -0.046878427 0.017163476
-0.0026618573 -0.046578094 0.017437086
0.0024980104 -0.044986386 0.016840659
0.0074901716 -0.047496315 0.017500008
0.012586744 -0.047027268 0.017150013
0.016938638 -0.046762574 0.016845578
0.022529133 -0.047619797 0.017500015
0.026836039 -0.047529478 0.016867837
-0.026050268 -0.041584309 0.016416803
-0.022384398 -0.040938642 0.016710505
-0.017045639 -0.041991942 0.017169828
-0.012229588 -0.041707918 0.017039478
-0.0074076517 -0.042556971 0.017500017
-0.0023854906 -0.042188287 0.017500011
0.0024848881 -0.042524192 0.017500009
0.0075169685 -0.042501613 0.017500017
0.01271862 -0.041879177 0.017168455
0.01736483 -0.042560063 0.017500015
0.022477811 -0.042400632 0.017500011
0.026801838 -0.042515311 0.016930003
-0.02683985 -0.037766121 0.016498469
-0.022076098 -0.036752027 0.017062508
-0.017334484 -0.037801035 0.017393177
-0.012227768 -0.037193328 0.017143998
-0.0076912455 -0.037365746 0.017123668
-0.0025755791 -0.03758464 0.017500006
0.0029450664 -0.03643097 0.017348778
0.0074704853 -0.037667125 0.017500006
0.011970194 -0.03646253 0.017040469
0.016980739 -0.037619315 0.017341543
0.02248795 -0.037810467 0.017500015
0.026982695 -0.037317287 0.016780647
-0.02693378 -0.032518219 0.016940063
-0.022634549 -0.032768067 0.017500002
-0.01702337 -0.031919613 0.01713543
-0.012451695 -0.031416759 0.017384402
-0.0074158069 -0.032716539 0.017500015
-0.0025510937 -0.03233505 0.017500011
0.0024661003 -0.032879174 0.017500017
0.0075416635 -0.031430732 0.016987609
0.012383696 -0.032366905 0.017500009
0.016988242 -0.032391354 0.017265184
0.022535702 -0.032566249 0.017500013
0.027018826 -0.032438658 0.016882665
-0.026900962 -0.027221296 0.016846895
-0.022593122 -0.027542012 0.017500019
-0.017479697 -0.027458245 0.017500011
-0.012720671 -0.027678886 0.017500015
-0.0076027252 -0.027598793 0.017500011
-0.0026486013 -0.026939064 0.017034287
0.0026662156 -0.027349627 0.016917275
0.0075668171 -0.027425667 0.017500017
0.012082296 -0.026651209 0.017062586
0.017622707 -0.02758077 0.017500013
0.02216571 -0.026712647 0.017156877
0.026828988 -0.027410557 0.016899407
-0.02676801 -0.022508424 0.01695735
-0.022604171 -0.022733575 0.017500013
-0.01727275 -0.022072902 0.016879255
-0.012049605 -0.02281821 0.017177451
-0.0070399749 -0.022590736 0.017106753
-0.0024689941 -0.022910113 0.017244412
0.0024272648 -0.023528244 0.016912289
0.0077368929 -0.022524524 0.017500013
0.012410289 -0.02282086 0.017500013
0.017514909 -0.02252892 0.017500013
0.022548141 -0.022804052 0.017500013
0.026843365 -0.022564005 0.016878631
-0.026734747 -0.017564045 0.017002832
-0.022615615 -0.017314004 0.017340826
-0.016839357 -0.01667532 0.016992755
-0.012579717 -0.017743627 0.017500011
-0.0076814084 -0.017689425 0.017498722
-0.0024683001 -0.016519494 0.016656633
0.0029603876 -0.017739953 0.017292816
0.0077126152 -0.016527638 0.017401787
0.012339435 -0.018474156 0.017175511
0.017442344 -0.016570481 0.016921209
0.022308415 -0.017293617 0.017500011
0.0268529 -0.017640008 0.016926419
-0.026104353 -0.011602703 0.016378621
-0.022589242 -0.012378188 0.017500017
-0.017608151 -0.012462066 0.017500011
-0.01274683 -0.012556389 0.017500013
-0.0075901356 -0.012452397 0.017187092
-0.0021596425 -0.011946943 0.017248504
0.0024089657 -0.01271785 0.017500011
0.0067234514 -0.012291772 0.016783208
0.012446311 -0.012503936 0.017500009
0.017628402 -0.012538316 0.017500013
0.0226347 -0.011812179 0.01744408
0.026823709 -0.01226909 0.016962735
-0.026852785 -0.0073720422 0.016991744
-0.0227711 -0.007690697 0.017500011
-0.017037481 -0.0074170297 0.017377073
-0.012535933 -0.0078392522 0.016979089
-0.0072359382 -0.0076930816 0.017500011
-0.0021671874 -0.0078290831 0.017493412
0.0027377375 -0.0071011949 0.017394956
0.0075134919 -0.0074837878 0.017500015
0.012291812 -0.0072255097 0.017057011
0.017460421 -0.0083687659 0.017264286
0.022607073 -0.0078766132 0.017120717
0.026852313 -0.0076571661 0.01683105
-0.026870605 -0.0025114634 0.017020041
-0.022347562 -0.0018208362 0.017251611
-0.01702846 -0.0017442271 0.017436098
-0.012428242 -0.0025145963 0.017500011
-0.0071602422 -0.0029612964 0.017213225
-0.0025592814 -0.0025040603 0.017500002
0.0023022105 -0.0021626684 0.016836587
0.0078089763 -0.0021944959 0.01688637
0.012414025 -0.002693678 0.017500017
0.017642295 -0.0031966039 0.016850846
0.022205468 -0.0024059429 0.017500015
0.026826775 -0.0023097522 0.016841615
-0.026749082 0.0025409558 0.017000094
-0.02266923 0.0025924684 0.017500006
-0.017716574 0.0024877798 0.017500013
-0.012060805 0.0034392104 0.017333407
-0.0073530418 0.0024449611 0.017500009
-0.0025711935 0.0030314208 0.017078321
0.0024176436 0.0025439537 0.017500015
0.0079238946 0.0030958867 0.017163021
0.012847796 0.0025229373 0.017500008
0.017402917 0.0023723366 0.017500009
0.02241181 0.0025680021 0.017500015
0.026960569 0.0024814685 0.016830059
-0.026990581 0.0075910222 0.016833387
-0.022735154 0.007314261 0.017500015
-0.01740084 0.0078462223 0.017116072
-0.011960459 0.0077422042 0.017134666
-0.0068956371 0.0076055857 0.017444056
-0.0026154164 0.0073733185 0.017067909
0.0024751243 0.0075203646 0.017500009
0.0076476312 0.0076399939 0.017500004
0.012420787 0.007441517 0.017500015
0.016781624 0.0063451817 0.01672397
0.022556337 0.0074624247 0.017500006
0.025515284 0.0072049918 0.016201777
-0.026751459 0.012426364 0.017012976
-0.022264762 0.012421391 0.017500013
-0.016735829 0.012221201 0.016724713
-0.012033369 0.012846996 0.017165396
-0.0072143963 0.01248943 0.017500013
-0.0024640283 0.012443137 0.017500013
0.002007863 0.011691317 0.017329715
0.0076691215 0.011397918 0.016652225
0.012707661 0.012575995 0.017246453
0.017491397 0.01197069 0.017493309
0.022604512 0.011834992 0.017295172
0.026478436 0.012004009 0.01717606
-0.026371287 0.017127533 0.016999558
-0.02249347 0.017876012 0.017394539
-0.017144997 0.017499518 0.017500009
-0.012605371 0.015462106 0.016802523
-0.0068280823 0.01684517 0.017054172
-0.0024492454 0.017426668 0.017500013
0.0027187932 0.017517464 0.017500015
0.00756054 0.017723221 0.017500009
0.011720129 0.018356837 0.016200243
0.01685752 0.017329281 0.017093124
0.021915048 0.017470187 0.017437747
0.026688315 0.01753442 0.017044304
-0.026988 0.022467673 0.016707141
-0.022120291 0.021848876 0.017051289
-0.017488359 0.022249229 0.017500013
-0.012127483 0.021575561 0.017196856
-0.0075530796 0.022391813 0.017275246
-0.0023259285 0.022474522 0.017500013
0.002364076 0.022244396 0.017500008
0.0074830316 0.022594826 0.017500011
0.012582583 0.022503823 0.017500009
0.017681327 0.020925799 0.016865578
0.021891624 0.022750039 0.017137276
0.026195893 0.021965234 0.016478956
-0.026690422 0.027604245 0.016927663
-0.022405734 0.02725992 0.01707832
-0.016807996 0.028144402 0.017313441
-0.012133157 0.026702164 0.017314382
-0.0078489417 0.026158344 0.017258715
-0.00256485 0.027182752 0.017497448
0.0018319578 0.026574936 0.017234469
0.0073717106 0.025883019 0.016983926
0.011504345 0.026969457 0.016553484
0.017487908 0.027555471 0.017500006
0.022590237 0.02742842 0.017500015
0.026768146 0.026924003 0.016676079
-0.026797719 0.032423232 0.016549081
-0.022606647 0.031333756 0.017500011
-0.017246705 0.031297099 0.017141961
-0.012439906 0.032437321 0.017500008
-0.0079077901 0.031834163 0.017198293
-0.0023101438 0.030342204 0.016706275
0.0023192232 0.032475438 0.017062508
0.0075770994 0.032637253 0.017500013
0.01256553 0.032517061 0.017500013
0.016976308 0.030712072 0.01701699
0.022559403 0.032436877 0.017500009
0.026946608 0.032511979 0.016854145
-0.026264085 0.037506942 0.016473699
-0.022067752 0.037212368 0.017131591
-0.017255934 0.036071651 0.017288594
-0.012597308 0.037516888 0.017500017
-0.0077826674 0.036530651 0.017156538
-0.0025914717 0.037505474 0.017401127
0.002536339 0.037608858 0.017500013
0.0077411989 0.036743715 0.017226771
0.011736454 0.035845228 0.016923495
0.017774418 0.037550818 0.017500009
0.022470705 0.037469726 0.017500008
0.026315892 0.036834195 0.016506504
-0.026397735 0.042890579 0.016741212
-0.021969922 0.039600786 0.016644455
-0.017090799 0.042666163 0.017062506
-0.01238092 0.041998204 0.017403098
-0.0074709319 0.042420812 0.017500015
-0.002409769 0.04147112 0.017106751
0.0019844642 0.04147369 0.016964607
0.007339396 0.042434961 0.017500011
0.012412945 0.040980812 0.016958296
0.017431198 0.041562755 0.017494963
0.021591814 0.040839966 0.017028589
0.026897402 0.041671384 0.016717643
-0.026932126 0.04729984 0.016865874
-0.022680881 0.046437383 0.017131591
-0.017601509 0.047199868 0.017500015
-0.011845897 0.046698164 0.017441342
-0.0076632625 0.047403611 0.017500017
-0.0028487979 0.047458414 0.017500009
0.0025279138 0.047593094 0.017500017
0.0076138023 0.045619234 0.016688745
0.012653193 0.047423612 0.017500015
0.017677644 0.046965826 0.017494531
0.02230227 0.047211558 0.017500015
0.026986608 0.047326691 0.016787501
-0.026706664 0.052605797 0.016548317
-0.022182062 0.051529631 0.017129743
-0.017302793 0.052807294 0.017187819
-0.012676509 0.051413376 0.017346218
-0.0075493422 0.052566808 0.017500009
-0.0024377452 0.052425638 0.017500015
0.0017829122 0.05241311 0.017150259
0.007439815 0.052547615 0.017500013
0.012410772 0.05210796 0.01723939
0.017537301 0.051420048 0.017083341
0.022483516 0.052547865 0.017500011
0.026903978 0.052519079 0.016909644
-0.026091194 0.05644669 0.016484423
-0.021772284 0.05700447 0.017487595
-0.017469196 0.057461135 0.017500013
-0.012338303 0.057463195 0.017500011
-0.0074856896 0.057595275 0.017500009
-0.0026488462 0.05752423 0.017500017
0.0025082564 0.055832483 0.016566671
0.0077316463 0.056259412 0.016722349
0.01261533 0.057273436 0.017486349
0.017427642 0.056314833 0.017087009
0.022522422 0.057314143 0.017203018
0.026540291 0.057372306 0.016545966
-0.026182244 0.059868269 0.016795466
-0.022591721 0.062234253 0.017500011
-0.016999956 0.062023543 0.017286673
-0.01258247 0.062423475 0.017169215
-0.0079396497 0.062758327 0.01736304
-0.002625583 0.06263116 0.017500004
0.0027570855 0.062406544 0.017500015
0.0070488616 0.061740264 0.017269647
0.012541853 0.062392853 0.017500008
0.017358258 0.062353883 0.017500013
0.022282926 0.062463254 0.017500011
0.026730768 0.062624231 0.01694653
-0.026205283 0.065000013 0.016299913
-0.022806838 0.064002231 0.015586784
-0.017837001 0.065000035 0.016103283
-0.012297875 0.065000027 0.016334835
-0.0073655071 0.065000042 0.016327519
-0.0027521986 0.065000042 0.016179772
0.0020032141 0.06289281 0.015505873
0.0076286127 0.065000042 0.016166484
0.012689254 0.065000035 0.016263969
0.01765438 0.065000035 0.016116098
0.022166967 0.065000035 0.016265303
0.026475679 0.065000027 0.016464587
