# .PCD v0.7 - Point Cloud Data file format
VERSION 0.7
FIELDS x y z
SIZE 4 4 4
TYPE F F F
COUNT 1 1 1
WIDTH 1299
HEIGHT 1
VIEWPOINT 0 0 0 1 0 0 0
POINTS 1299
DATA ascii
0.049748834 0.037748359 0.014271202
0.050506555 0.037842806 0.011774329
-0.050581608 0.040440351 0.011255653
-0.049715057 0.042710226 0.014382534
0.049600791 0.039019659 0.014125693
0.050480004 0.042210463 0.011855689
-0.046453625 0.048791982 0.011141152
-0.049716733 0.047725912 0.014377024
0.049794406 0.047705024 0.014121056
0.050337039 0.044598188 0.010618259
-0.048160508 0.049413051 0.010378759
-0.049761932 0.052184973 0.014228069
0.044871785 0.052614871 0.01097927
0.049688559 0.048410002 0.010988393
-0.050514877 0.057347685 0.011745251
-0.049806342 0.05809683 0.01408173
0.049663153 0.058192164 0.014553574
0.050617673 0.05732362 0.011407874
-0.047731314 0.060663305 0.00896989
-0.04772874 0.058803774 0.010335477
0.049806483 0.062788941 0.014081265
0.050590377 0.062400497 0.011491422
-0.0505061 0.067451172 0.011775832
-0.049418975 0.06749405 0.013584919
-0.042402662 0.069999993 0.011824513
-0.038483284 0.069999993 0.013410521
-0.033153102 0.069999993 0.014611728
-0.029277558 0.069999993 0.01105399
-0.021584418 0.069999993 0.014546496
-0.012039306 0.069999993 0.014368973
-0.0030553306 0.069999993 0.010514108
0.0032685997 0.069999993 0.012482475
0.0075512184 0.069999993 0.011918195
0.013801359 0.069999993 0.012330031
0.016299427 0.069999993 0.012552286
0.022751288 0.041853338 -0.0024628721
0.031636745 0.069999993 0.012160068
0.043596357 0.069999993 0.012232195
0.049448512 0.068199001 0.01416498
0.050521031 0.066868261 0.011726636
-0.050384481 0.07 0.011640133
-0.045454375 0.067604482 0.010279082
-0.039841 0.070000015 0.010411693
-0.036558565 0.066111125 0.011933158
-0.032507516 0.07 0.012646524
-0.027366908 0.070000008 0.012116162
-0.022284027 0.06420058 0.010370755
-0.014781328 0.066507883 0.0099711297
-0.012414389 0.070000008 0.012436737
-0.00744633 0.070000008 0.012762585
-0.0018871485 0.06820605 0.011190092
0.0025220704 0.066315793 0.011107758
0.0070334962 0.070000008 0.012014076
0.013394123 0.068723992 0.012545605
0.017752541 0.068192035 0.011111664
0.021504696 0.066499978 0.011389283
0.024998285 0.067954466 0.01235262
0.030174032 0.069426611 0.012046305
0.036401607 0.069999993 0.012125548
0.038876638 0.065234512 0.0098032719
0.043820169 0.068335921 0.0091109686
0.050521106 0.07 0.010119334
-0.047174998 -0.070000008 0.016201828
-0.035448104 -0.070000008 0.016621344
-0.030080624 -0.070000008 0.017197881
0.0044721784 -7.4505806e-09 -0.005261112
-0.022433873 -0.070000008 0.017041354
-0.017620414 -0.070000008 0.017590385
-0.022048159 -0.035953898 0.0079435706
-0.008170357 -0.070000008 0.016928952
-0.0024336292 -0.070000008 0.016511889
0.001978524 -0.070000008 0.017437885
0.012596163 -0.070000008 0.01697322
0.018365126 -0.070000008 0.01999652
0.021171719 -0.070000008 0.016770467
0.031694736 -0.070000008 0.019186649
0.036148969 -0.070000008 0.019202407
0.047254093 -0.043775395 0.015695337
-0.046678267 -0.065266959 0.016693639
-0.039473392 -0.065235637 0.014953921
-0.036795802 -0.07 0.017042661
-0.03269374 -0.069999985 0.017707735
-0.027329933 -0.07 0.01727147
-0.023334231 -0.069003351 0.017045354
-0.01790153 -0.06884288 0.017097507
-0.010037815 -0.0666686 0.014946604
-0.0081610251 -0.069065519 0.017145088
-0.0029824795 -0.070000023 0.017181888
0.0017662403 -0.067419939 0.015097465
0.0074906461 -0.070000023 0.017272934
0.011975344 -0.070000008 0.017436894
0.016220769 -0.067879245 0.016864313
0.023048248 -0.066984259 0.01733184
0.027283635 -0.069999993 0.017139254
0.032303996 -0.069999993 0.017404029
0.037397023 -0.070000023 0.01763884
0.042122006 -0.067021258 0.016588001
0.047965705 -0.068730585 0.017675897
-0.045780215 -0.058441985 0.015572106
0.046843387 -0.060483888 0.017315153
-0.048731364 -0.057637054 0.017624047
0.045185819 -0.052587457 0.012723221
-0.047786023 -0.052916955 0.015705058
0.04889144 -0.051964067 0.017098444
-0.048858438 -0.045952134 0.017047236
0.046268895 -0.045767158 0.016927721
-0.048171747 -0.040661547 0.016211938
0.048811153 -0.042481702 0.017361645
-0.048614305 -0.037515331 0.018007923
0.048670612 -0.037506025 0.01782673
-0.045087393 -0.034754746 0.015359869
0.048763275 -0.031949308 0.017386975
-0.04886103 -0.027367555 0.01719868
0.046883639 -0.023633493 0.015609626
-0.047169857 -0.020184077 0.014405104
0.045915157 -0.023965023 0.017310245
-0.04550096 -0.01420406 0.015324712
0.047662754 -0.016703924 0.0163518
-0.047056042 -0.010233657 0.017348789
0.047984965 -0.01298517 0.015909377
-0.048109695 -0.0073035434 0.016054735
0.04868054 -0.0079345796 0.017793179
-0.04880669 -0.002448366 0.017375894
0.045611098 -2.6412956e-05 0.016111279
-0.048747767 0.0037405265 0.016940465
0.048741966 0.0033469105 0.017273372
-0.048852775 0.0075260317 0.01722531
0.048673738 0.0071501234 0.017816428
-0.045684073 0.0089279944 0.015107117
0.048646096 0.012737804 0.017906172
-0.044946492 0.015467731 0.015553359
0.046650767 0.015190565 0.016032768
-0.047497593 0.023834353 0.016856823
0.04602601 0.020957468 0.013333602
-0.046873253 0.028244909 0.01619596
0.048748255 0.027273579 0.01757065
-0.04840225 0.030687138 0.017011223
0.048773475 0.032291137 0.01748598
-0.046520337 0.035847247 0.017046174
0.048605673 0.037203748 0.018039871
-0.048743777 0.042874292 0.015809743
0.048766851 0.042185999 0.017509308
-0.04712614 0.046668783 0.016459823
0.04693516 0.047732823 0.016812602
-0.048839755 0.052541289 0.017268861
0.04798907 0.048829727 0.0154948
-0.04864639 0.056910571 0.016057638
0.048761792 0.057614997 0.0175252
-0.046932612 0.060581636 0.016439464
0.048786465 0.06233355 0.017444633
-0.047017861 0.067326404 0.017536666
-0.041324258 0.069999993 0.015469672
-0.036184125 0.069999993 0.016599545
-0.0326984 0.069999993 0.01683376
-0.02977637 0.069999993 0.019357907
-0.023547664 0.069999993 0.01851867
-0.017917134 0.069999993 0.016472075
-0.0052565858 0.069999993 0.015083972
-0.0020266771 0.069999993 0.016156169
0.0029453374 0.069999993 0.016345575
0.0074042757 0.069999993 0.017484372
0.015774736 0.069999993 0.016655879
0.021473771 0.069999993 0.016534286
0.026873354 0.069999993 0.016007641
0.036426969 0.069999993 0.016543932
0.042647649 0.069999993 0.016798882
0.046471532 0.059923504 0.014364101
-0.046658382 0.070000015 0.017444054
-0.040578362 0.07 0.016858818
-0.037361849 0.06733574 0.016778601
-0.033035398 0.066671953 0.016764808
-0.027368842 0.066432409 0.015708901
-0.019699765 0.064105019 0.014742984
-0.017246995 0.070000008 0.017530927
-0.012776709 0.070000015 0.017564863
-0.0073599615 0.070000023 0.017357346
-0.00062087929 0.065469526 0.014736379
0.0035946718 0.062852241 0.014652479
0.0062458226 0.069704093 0.016864294
0.012411965 0.067663051 0.016158286
0.018910486 0.067767493 0.01558647
0.021255111 0.06733299 0.015384463
0.028102847 0.069974333 0.016864087
0.031951852 0.069467254 0.016102532
0.037480719 0.070000008 0.017574402
0.042383112 0.070000015 0.017314896
0.03987712 0.06360279 0.012621551
-0.043192729 -0.070000008 0.023139277
-0.037940808 -0.070000008 0.023120807
-0.031706505 -0.070000008 0.02252874
-0.027550977 -0.070000008 0.024013503
-0.022083182 -0.070000008 0.023555407
-0.018381041 -0.070000008 0.021535521
-0.013298688 -0.070000008 0.021254444
-0.0073281401 -0.070000008 0.022556154
-0.0024750307 -0.070000008 0.022284299
0.0068036416 -0.070000008 0.02248342
0.012952208 -0.070000008 0.022335101
0.0078724464 -0.035000008 0.010837548
0.027726185 -0.070000008 0.022043219
0.03262848 -0.070000008 0.022421742
0.036878943 -0.070000008 0.023873102
0.041099001 -0.070000008 0.020081613
0.045849632 -0.070000008 0.021286812
-0.044859309 -0.065355144 0.021469489
-0.04264668 -0.069999993 0.022675358
-0.038137037 -0.067258969 0.022766771
-0.032479122 -0.070000015 0.022203892
-0.026831584 -0.070000008 0.021275327
-0.023713596 -0.06660419 0.021498946
-0.01793831 -0.06661956 0.020700552
-0.013326162 -0.065968379 0.021067796
-0.0095553482 -0.067346364 0.020920776
-0.0026361831 -0.066739097 0.020613693
0.003981648 -0.067325331 0.021735113
0.0091305142 -0.063779153 0.020780504
0.010684902 -0.065625019 0.021728337
0.015613659 -0.069722258 0.021928286
0.018495781 -0.065767318 0.017184824
0.027950017 -0.069822803 0.020769091
0.032987565 -0.068310209 0.021783922
0.036579255 -0.066216223 0.021808466
0.042041447 -0.070000015 0.022662312
0.044149142 -0.064926632 0.019370554
-0.046808198 -0.062942155 0.022207929
0.044420168 -0.061439361 0.022090796
-0.046709724 -0.057977818 0.022392137
0.046811741 -0.057706483 0.022201292
-0.046752151 -0.050388258 0.020766402
0.046706647 -0.05234693 0.022279035
-0.039918181 -0.043015126 0.019000938
0.046276454 -0.047415309 0.021056723
-0.044446714 -0.038259879 0.022187963
0.045902297 -0.042122152 0.021078279
-0.045156974 -0.036920115 0.021042293
0.046539623 -0.037480671 0.022710321
-0.045036513 -0.030487493 0.020803403
0.043740187 -0.030816851 0.020600991
-0.046384659 -0.028014334 0.021826085
0.0454541 -0.026385555 0.021042498
-0.043753896 -0.024022212 0.022109123
0.046296988 -0.022190591 0.023164166
-0.046881117 -0.017537095 0.022071529
0.044994924 -0.016770374 0.021527177
-0.044526886 -0.013406769 0.022298692
0.044358108 -0.010411168 0.022270951
-0.046477895 -0.0075359182 0.022825772
0.046781633 -0.0073834946 0.022257624
-0.046639487 -0.0040725456 0.022034137
0.046598103 -0.0027147629 0.022406943
-0.045276072 0.00087239593 0.020028897
0.046513941 0.0022720494 0.022681508
-0.046504106 0.0074666725 0.022776766
0.046597421 0.0090288492 0.021979548
-0.046626709 0.012507997 0.022547429
0.043386959 0.011774079 0.019581752
-0.042047318 0.01748313 0.016974475
0.04416978 0.017349329 0.019986209
-0.046557512 0.022827666 0.022676861
0.043188047 0.02006384 0.01719458
-0.044265915 0.026671639 0.021507869
0.046593916 0.027696174 0.022608772
-0.044760346 0.033524889 0.021982193
0.046617795 0.032441888 0.022564096
-0.046625566 0.036962934 0.022549555
0.046333078 0.035536703 0.021724718
-0.046487365 0.040560577 0.021504864
0.046421822 0.040393502 0.021119615
-0.045314457 0.045969956 0.021195546
0.046130892 0.041981477 0.021417039
-0.046011336 0.049813308 0.020831151
0.046634849 0.052503999 0.02253218
-0.044422247 0.054813556 0.021382153
0.046673745 0.057266865 0.02245944
-0.046635661 0.062349774 0.022530667
0.045355398 0.06250073 0.021320911
-0.043152228 0.064744592 0.019914586
-0.041733585 0.069999993 0.020857127
-0.037977543 0.069999993 0.022641608
-0.032616496 0.069999993 0.022731733
-0.026169322 0.069999993 0.022319039
-0.023339678 0.069999993 0.022167146
-0.017439505 0.069999993 0.021980589
-0.0075547299 0.069999993 0.022632509
-0.0022802472 0.069999993 0.023646016
0.003434103 0.069999993 0.023161333
0.0060053095 0.069999993 0.024849515
0.013171609 0.069999993 0.022050854
0.017940452 0.069999993 0.0220441
0.022321986 0.069999993 0.02106471
0.027968673 0.069999993 0.021645356
0.032919742 0.069999993 0.02229318
0.036776274 0.069999993 0.024947964
0.043151379 0.069999993 0.02200903
0.044356044 0.065181814 0.02226443
-0.045856085 0.065981843 0.019678881
-0.040533822 0.06423644 0.021379907
-0.03735511 0.069999993 0.022444835
-0.030386996 0.06556166 0.02151688
-0.027874859 0.069486551 0.0222659
-0.020948756 0.069007583 0.022187868
-0.017377382 0.07 0.022678126
-0.011485242 0.066315793 0.020643413
-0.0074372292 0.068430573 0.019341342
-0.0023634452 0.06999772 0.021316307
0.0037662848 0.070000015 0.020588087
0.0076011536 0.067901492 0.020415569
0.01241742 0.067807458 0.019870063
0.017555224 0.070000008 0.022248376
0.021179289 0.068600282 0.021165088
0.027002756 0.066818178 0.021597529
0.030830212 0.069843255 0.021376394
0.037312757 0.067118384 0.021002606
0.040079594 0.067445002 0.021935631
0.046401896 0.07 0.02144569
-0.031824294 -0.070000008 0.027644817
-0.026204467 -0.070000008 0.027514573
-0.021830745 -0.07 0.027763242
-0.017646471 -0.070000008 0.029147457
-0.013965022 -0.070000008 0.025621742
-0.0079418654 -0.070000008 0.028316841
-0.0029244083 -0.070000008 0.02529585
0.0004638806 -0.070000008 0.025487278
0.0091040581 -0.070000008 0.027400194
0.021646088 -0.070000008 0.026197385
0.027470019 -0.070000008 0.026193723
0.025390012 -0.016128538 -0.011271028
0.03678577 -0.070000008 0.026318796
-0.04509113 -0.068161763 0.025419844
-0.043195538 -0.06842044 0.027648853
-0.037720464 -0.064653412 0.026198948
-0.032429274 -0.070000015 0.027670093
-0.027585063 -0.070000008 0.027547037
-0.020066606 -0.066426717 0.025620053
-0.016221669 -0.067696214 0.025440149
-0.012315999 -0.067994453 0.025457269
-0.0063024154 -0.069359094 0.02614063
-0.00082147552 -0.063727856 0.024538169
0.0024591305 -0.070000015 0.027408451
0.0040080845 -0.065444402 0.026472999
0.012917268 -0.070000008 0.027450692
0.017721387 -0.070000008 0.027488988
0.022609495 -0.070000015 0.02766246
0.026967442 -0.066315793 0.026165802
0.032319147 -0.07 0.02724044
0.037402593 -0.069999993 0.027325641
0.043285448 -0.068415999 0.027730564
0.045159899 -0.067848019 0.025283925
-0.045191728 -0.062673867 0.025231663
-0.040600624 -0.058427773 0.023506343
0.041025806 -0.058226187 0.025432087
0.045106839 -0.062153637 0.02539045
-0.045123186 -0.05685823 0.025359875
-0.040388416 -0.053197879 0.026772304
0.04313647 -0.05546749 0.0273571
0.045150653 -0.057209399 0.025308486
-0.045166109 -0.052548856 0.025279582
-0.041553389 -0.049951009 0.026596025
0.04330942 -0.053245466 0.026919691
0.045163162 -0.050757669 0.025285093
-0.045212265 -0.047714699 0.02519324
-0.04270529 -0.048000053 0.02558092
0.042998128 -0.048170146 0.026124798
0.045151904 -0.046709079 0.02530615
-0.045212798 -0.042057127 0.02519225
-0.039869573 -0.039822545 0.025687955
0.043779291 -0.04249078 0.027814511
0.035067786 -0.048844755 0.0097400649
-0.045274388 -0.03601072 0.025077036
-0.041251488 -0.037663132 0.026564883
0.041973326 -0.037346657 0.026564067
-0.045225933 -0.034190945 0.025167674
-0.041944519 -0.033377305 0.026247762
0.043627065 -0.033041064 0.028043741
0.045157675 -0.032941557 0.02529536
-0.045192674 -0.026548659 0.025229892
-0.04365769 -0.027524052 0.02799236
0.042278033 -0.02642688 0.02594774
0.045136966 -0.02816092 0.025334096
-0.045160864 -0.022684304 0.025289396
-0.042853698 -0.020361006 0.026221713
0.042581696 -0.023521611 0.026144179
0.045170799 -0.022407023 0.025270808
-0.045155562 -0.017717345 0.025299309
-0.041761991 -0.015702669 0.026592931
0.043520678 -0.015941376 0.026820814
0.045188457 -0.016420409 0.02523778
-0.045201525 -0.013438424 0.025213331
-0.043728162 -0.013241837 0.027027013
0.041182108 -0.010423834 0.025289832
0.045190744 -0.013644844 0.025233502
-0.045186006 -0.0086083785 0.025242362
-0.042777929 -0.0066105044 0.026257422
0.043719422 -0.0078084162 0.027888369
0.045191236 -0.0086740833 0.025232581
-0.045176532 -0.0038154661 0.025260082
-0.043573793 -0.0025923874 0.026739663
0.043649174 -0.0022536658 0.027984517
0.045137286 -0.0035380069 0.025333486
-0.045111395 0.001585378 0.025381936
-0.043753952 0.0022243636 0.027851248
0.042716794 0.0040399232 0.027493682
0.045163974 0.0018389565 0.025283569
-0.045103166 0.0087849274 0.025397316
-0.042683523 0.0065513221 0.024561509
0.043745596 0.007550172 0.027849449
0.045097165 0.0086939866 0.025408544
-0.029008139 0.014048958 0.020609412
-0.043233536 0.014468627 0.027824564
0.043782994 0.012652551 0.027811931
0.045163456 0.013364032 0.025284542
-0.045120064 0.016989924 0.025365714
-0.043730345 0.017331915 0.027851274
0.042844187 0.015213781 0.027427297
0.045119923 0.01710066 0.025365975
-0.045186736 0.022299517 0.025240999
-0.044004004 0.021919105 0.027148196
0.040798396 0.020083031 0.027902722
0.045187213 0.021571498 0.025240105
-0.045098804 0.026665136 0.025405485
-0.043673113 0.027902627 0.027978906
0.043820679 0.027801875 0.027698062
0.045223195 0.027519619 0.0251728
-0.045181617 0.032139327 0.025250569
-0.041912388 0.031293858 0.027240651
0.042016085 0.03056577 0.027509652
0.045151375 0.032028355 0.025307149
-0.045162961 0.038368434 0.025285471
-0.039814997 0.036412068 0.024759583
0.042178847 0.035871044 0.026142346
0.045155719 0.037067492 0.025299018
-0.045047998 0.042578489 0.025500525
-0.042862266 0.041453898 0.025984397
0.041435223 0.04108119 0.026792234
0.04515494 0.042276304 0.025300479
-0.045172762 0.048272073 0.025267137
-0.040166445 0.043472171 0.027064154
0.043785371 0.047484547 0.027766719
0.045214754 0.047183082 0.025188584
-0.045104373 0.052433848 0.025395064
-0.041486956 0.044396743 0.024321267
0.043758646 0.052566964 0.027811535
0.045111254 0.051458612 0.025382195
-0.045206718 0.056752197 0.025203619
-0.04174884 0.055128135 0.02579063
0.04191412 0.05404228 0.026289828
0.046258133 0.03761626 0.020731345
-0.045099169 0.062818937 0.0254048
-0.042815261 0.062877193 0.027372949
0.043140888 0.061077215 0.026113942
0.045184094 0.061862402 0.025245946
-0.04515224 0.066932052 0.025305536
-0.043811619 0.067566946 0.027745342
-0.037974816 0.069999993 0.028908832
-0.02770631 0.069999993 0.026779665
-0.017714253 0.069999993 0.028018316
-0.013932297 0.069999993 0.029039498
-0.0059895348 0.069999993 0.029053517
-0.0020475616 0.069999993 0.026930008
0.0024826247 0.069999993 0.029222783
0.0067091696 0.069999993 0.029717896
0.013991322 0.069999993 0.028111696
0.016399596 0.069999993 0.026659297
0.021363039 0.069999993 0.02644695
0.027718605 0.069999993 0.029948929
0.030572033 0.069999993 0.025947915
0.041110072 0.061973643 0.025144476
0.045168158 0.067677483 0.025275752
-0.041528352 0.070000015 0.027673982
-0.036755275 0.070000015 0.027306041
-0.032141943 0.070000023 0.027304582
-0.027501615 0.069999993 0.027829448
-0.022540757 0.070000008 0.027619788
-0.01768465 0.069999993 0.027670156
-0.013106697 0.069999993 0.027026284
-0.0079945382 0.069371454 0.026185684
-0.0027354416 0.07 0.027473895
0.002275913 0.070000015 0.027741209
0.0057439115 0.064554647 0.025291607
0.012479209 0.069999993 0.027426355
0.018773219 0.068748161 0.026928635
0.022709165 0.067117952 0.025568489
0.027989792 0.066802643 0.026922833
0.03234563 0.070000015 0.027880944
0.036042247 0.067857012 0.025401715
0.039242823 0.066882081 0.025906274
-0.037704647 -0.070000008 0.032316778
-0.033004276 -0.070000008 0.032978788
-0.025529575 -0.070000008 0.030577552
-0.018264838 -0.070000008 0.03404852
-0.017610582 -0.035000004 0.01279616
-0.0082414784 -0.070000008 0.031820066
-0.0029499005 -0.070000008 0.032630488
0.0036391558 -0.070000008 0.032207537
0.0083930353 -0.070000008 0.033722281
0.011396921 -0.070000008 0.032899499
0.016259376 -0.070000008 0.032371353
0.020713188 -0.070000008 0.034208126
0.026144743 -0.070000008 0.030414203
0.030166388 -0.070000008 0.03334485
0.038872607 -0.070000008 0.031424731
-0.036338221 -0.058324888 0.025180008
-0.036251489 -0.06476403 0.031814836
-0.032873116 -0.069999993 0.032682609
-0.028513601 -0.06443543 0.031452816
-0.022301327 -0.070000008 0.032661475
-0.015169673 -0.066216223 0.030258112
-0.012448506 -0.070000015 0.032570623
-0.0072833207 -0.07 0.032621
-0.0039787106 -0.066329181 0.031308942
0.0023559453 -0.066956513 0.03020376
0.0064903065 -0.069999993 0.031197712
0.01120171 -0.063410275 0.029621499
0.018417168 -0.066517368 0.031978991
0.017731322 -0.058414627 0.028128469
0.026936587 -0.064398453 0.028374713
0.030838387 -0.069999993 0.031597383
0.037759196 -0.068526082 0.031266071
0.041060932 -0.068258144 0.031376112
-0.041185964 -0.062786609 0.03138835
-0.037302934 -0.05992328 0.029608881
0.039668739 -0.059605636 0.032882571
0.037483189 -0.051939134 0.02401327
-0.037278969 -0.049816977 0.027944747
-0.035291985 -0.056148965 0.027948584
0.037456911 -0.053299792 0.032546517
0.03824218 -0.055009976 0.029579967
-0.041445021 -0.052664068 0.031072641
-0.039236329 -0.052639574 0.033764333
0.037136875 -0.046116084 0.033089828
0.041123714 -0.05241555 0.031464208
-0.036902484 -0.041517399 0.027287509
-0.034266558 -0.041523557 0.029691067
0.03925382 -0.047757041 0.033743024
0.040013399 -0.048523948 0.027892865
-0.041264713 -0.042846061 0.031292371
-0.039129104 -0.043031592 0.033895005
0.038996059 -0.042461079 0.034057148
0.041160271 -0.03898846 0.0305345
-0.041111067 -0.037672289 0.031479619
-0.037033554 -0.038060136 0.031713162
0.039079208 -0.037279408 0.033955812
0.041256778 -0.037467621 0.031302057
-0.041052341 -0.032063697 0.03155119
-0.038998637 -0.031810589 0.034054004
0.038961668 -0.03270407 0.034099061
0.041260213 -0.032213345 0.031297859
-0.03905252 -0.027075376 0.030058639
-0.039200664 -0.027911054 0.033807799
0.037423398 -0.026985442 0.028924029
0.041236922 -0.028063184 0.031326238
-0.039640702 -0.022945767 0.027654918
-0.039039675 -0.022571612 0.034003988
0.039417714 -0.021832274 0.033543274
0.034910496 -0.023609303 0.028592624
-0.040999632 -0.018034998 0.031615421
-0.036964554 -0.016563939 0.030702518
0.039305598 -0.018203383 0.033679914
0.038353421 -0.018531712 0.030780304
-0.037237696 -0.013168571 0.024638284
-0.038653303 -0.0089419214 0.032448351
0.03910023 -0.012852644 0.033930186
0.03958213 -0.012754293 0.029363627
-0.041283503 -0.0076167262 0.031269472
-0.039274458 -0.0071669975 0.033717863
0.030667143 -0.005535543 0.029146526
0.041256092 -0.0074644615 0.03130288
-0.041203797 -0.0022004556 0.031366609
-0.038533498 -0.0041155536 0.030979266
0.039223958 -0.0022611951 0.033779409
0.039378911 -0.0017789542 0.030248154
-0.037516497 0.0049464148 0.031358507
-0.03861361 -0.00056276942 0.03227808
0.039089132 0.0026815112 0.033943713
0.041032162 0.0024761641 0.031575788
-0.04123297 0.00757227 0.031331055
-0.037221611 0.0043619545 0.031459667
0.039122961 0.0072494578 0.033902496
0.041071426 0.0074426192 0.031527922
-0.038517926 0.01303566 0.030782226
-0.039444532 0.0092317676 0.031862747
0.036872182 0.0089254417 0.031421009
0.041033965 0.009938159 0.029697729
-0.041282896 0.018972723 0.029498635
-0.03919787 0.017886359 0.0338112
0.036551282 0.014716957 0.031144628
0.040911514 0.017369663 0.031722814
-0.040622607 0.017824724 0.029293384
-0.035753585 0.018287895 0.032941159
0.038395233 0.021718089 0.030803952
0.041309346 0.021864237 0.03123799
-0.037936255 0.022280809 0.030661594
-0.035614844 0.026501656 0.031379364
0.039171569 0.0275033 0.033843253
0.04080997 0.028630819 0.029575573
-0.038792547 0.030466272 0.028433697
-0.03780606 0.030158248 0.030558212
0.039034694 0.032670196 0.034010056
0.039224997 0.031265281 0.029057577
-0.041343093 0.03781639 0.031196861
-0.039049406 0.037370585 0.03399213
0.039164979 0.037469182 0.033851288
0.041595835 0.036107663 0.030440578
-0.041127555 0.041926581 0.031459518
-0.037618026 0.043892235 0.029995058
0.038638476 0.037635222 0.032633841
0.041207667 0.042615067 0.031361897
-0.040273786 0.04318659 0.030745359
-0.037736237 0.039672766 0.027292345
0.0292884 0.039996281 0.023166824
0.037776884 0.048768204 0.029181607
-0.040987756 0.052198917 0.031629901
-0.038393088 0.05282896 0.032172207
0.035693511 0.051572435 0.031283494
0.041166905 0.05248034 0.031411581
-0.035216615 0.055250265 0.028692937
-0.03411749 0.051223706 0.030288491
0.036313102 0.057868246 0.033103611
0.041142516 0.05794166 0.03144129
-0.041169897 0.062803619 0.03140793
-0.035818208 0.061221745 0.029269822
0.038008988 0.062771849 0.03216102
0.041113675 0.062211547 0.031476442
-0.041261546 0.067077272 0.031296231
-0.035437074 0.067097493 0.032180481
-0.03151891 0.069999993 0.033349779
-0.027055014 0.069999993 0.031455781
-0.022113832 0.069999993 0.030075302
-0.016637405 0.069999993 0.033273805
-0.010479657 0.069999993 0.03219945
-0.0079134004 0.069999993 0.032281674
-0.0037064438 0.069999993 0.032546513
0.0036776122 0.069999993 0.030162953
0.0098557519 0.055638302 0.0126363
0.014396432 0.069999993 0.031102899
0.017119622 0.069999993 0.032655381
0.022538489 0.069999993 0.032790422
0.029470034 0.069999993 0.032732282
0.033082075 0.069999993 0.03218703
0.03603299 0.056653224 0.030362418
0.041280616 0.067706749 0.031225584
-0.040804431 0.070000008 0.031484529
-0.037499461 0.070000023 0.032483298
-0.029973723 0.062032964 0.026481453
-0.027888887 0.067456745 0.031570826
-0.020741956 0.067874685 0.032431342
-0.018418547 0.06770692 0.029878169
-0.0093462151 0.06985373 0.030198485
-0.0092826542 0.066666871 0.030419374
-0.0028037396 0.070000008 0.031958181
0.0028897396 0.07 0.031441096
0.0061296425 0.061589085 0.031500667
0.014710537 0.06587179 0.030457027
0.017358972 0.070000008 0.032143764
0.022026069 0.068943441 0.029598968
0.028233944 0.067625806 0.031700108
0.029356204 0.069711916 0.03056757
0.037041534 0.066507146 0.030128146
0.040969398 0.07 0.030847665
-0.031121202 -0.070000008 0.036392402
-0.026284348 -0.070000008 0.038159858
-0.02323946 -0.070000008 0.038285874
-0.016429678 -0.070000008 0.038700618
-0.013665485 -0.070000008 0.037071027
-0.0083604474 -0.070000008 0.037339076
-0.0029706801 -0.070000008 0.038358584
0.0041688206 -0.070000008 0.038130999
0.012974705 -0.070000008 0.038477283
0.017464258 -0.070000008 0.037888963
0.022982728 -0.070000008 0.039711673
0.031188527 -0.070000008 0.036024954
-0.033699814 -0.062434353 0.034601863
-0.032024618 -0.066902049 0.036447823
-0.027305726 -0.070000015 0.037518602
-0.021615187 -0.070000015 0.036745276
-0.015066338 -0.069483764 0.035873204
-0.012483221 -0.069999993 0.037586845
-0.0067179571 -0.069999993 0.037076928
-0.0025643152 -0.070000015 0.03733559
0.0027745853 -0.064848959 0.036655508
0.0073901173 -0.064256102 0.035116762
0.012470967 -0.069999985 0.037669402
0.017688142 -0.07 0.037550088
0.021331182 -0.067362294 0.034918129
0.025578085 -0.069391303 0.03599463
0.031986475 -0.063593842 0.036512975
0.035303269 -0.061849192 0.033696659
-0.035737358 -0.059259132 0.035117682
-0.033871312 -0.062303402 0.039148547
0.033476744 -0.062744483 0.03728665
0.0346632 -0.06032531 0.03516902
-0.036845539 -0.057327125 0.036551021
-0.03400242 -0.057077181 0.03904096
0.033721197 -0.057418011 0.039271723
0.036934771 -0.054299016 0.034426872
-0.035137273 -0.053455207 0.034059372
-0.029866358 -0.049286667 0.035967808
0.033957221 -0.052602366 0.039078053
0.033581112 -0.047091313 0.034096781
-0.036520768 -0.047629833 0.036852993
-0.034370936 -0.044611815 0.037711829
0.033834375 -0.047490567 0.039178852
0.036640417 -0.047318403 0.036747336
-0.034742821 -0.042379394 0.034393292
-0.033948902 -0.042447381 0.039084882
0.033807565 -0.042729359 0.039200854
0.032978188 -0.043745354 0.03662657
-0.034319211 -0.036138102 0.036321852
-0.034110092 -0.036980234 0.038952611
0.034034099 -0.038049806 0.039014973
0.034843907 -0.037264485 0.034614954
-0.034604467 -0.03021777 0.034966454
-0.031278197 -0.028705217 0.03756294
0.034094397 -0.032273412 0.03896549
0.036409773 -0.032531675 0.036989916
-0.036128074 -0.027566658 0.033978824
-0.033914004 -0.027523842 0.03911351
0.031083396 -0.024120389 0.038882669
0.033073626 -0.029332157 0.030258784
-0.036515716 -0.022634331 0.036885016
-0.03396504 -0.024938207 0.035584409
0.030395314 -0.016842743 0.035957318
0.036681298 -0.020950144 0.034420777
-0.034891106 -0.01719046 0.033473544
-0.034080189 -0.017839713 0.03897715
0.033813521 -0.017015386 0.039195966
0.036860768 -0.017474122 0.03653067
-0.036914539 -0.012694407 0.036478858
-0.034076154 -0.012606954 0.038980462
0.034339335 -0.012706663 0.036553118
0.036113083 -0.013609428 0.034603044
-0.036459092 -0.0078140274 0.03692548
-0.030456031 -0.0032406487 0.03595157
0.034020085 -0.0073087132 0.039026469
0.036864068 -0.0062055346 0.036318701
-0.037002746 -0.0045492775 0.035472743
-0.034006685 -0.0019073838 0.039037466
0.029907048 -0.00090035039 0.038773969
0.035372451 -0.0037732101 0.034336653
-0.033228341 0.0047983634 0.031456891
-0.034013093 0.0023089603 0.03903221
0.025710329 0.010946789 0.031942628
0.036724504 0.0020849912 0.03667317
-0.037400391 0.0052275448 0.03556839
-0.033655111 0.0074459361 0.039325953
0.034970637 0.0028724885 0.035928346
0.036675192 0.007248533 0.036731813
-0.036271945 0.013898101 0.035993826
-0.033948716 0.012588665 0.039085034
0.033839766 0.012615766 0.039174426
0.036941662 0.013719952 0.035760917
-0.036506493 0.017561225 0.036870729
-0.033825088 0.017661713 0.039186478
0.033927709 0.017149974 0.039102271
0.032962535 0.019828003 0.034197982
-0.037248097 0.019446097 0.035401773
-0.033786021 0.023133699 0.039218534
0.030537121 0.018511498 0.037178762
0.034196287 0.019394148 0.036290254
-0.036285464 0.029321427 0.033368643
-0.03389854 0.027401848 0.03912621
0.026932482 0.025051771 0.032848664
0.036771145 0.02713093 0.036599785
-0.0366344 0.031963799 0.036763996
-0.027081978 0.026868332 0.030229405
0.034107074 0.032468088 0.038955089
0.035074804 0.033682074 0.034871601
-0.037389547 0.035617467 0.035202608
-0.030326454 0.035487436 0.035097551
0.028053759 0.035174757 0.032898784
0.032219552 0.036235206 0.035173103
-0.03653587 0.042662431 0.036856998
-0.033874329 0.031818651 0.036126096
0.033874653 0.042324021 0.039145797
0.034790117 0.041124839 0.035805173
-0.034594405 0.04600767 0.034002118
-0.03370351 0.04811085 0.039286237
0.034015149 0.047274791 0.039030526
0.036752827 0.047664169 0.036631212
-0.034751821 0.050744567 0.036625016
-0.033844192 0.052031044 0.039170802
0.033944618 0.052389052 0.039088391
0.034155406 0.048844922 0.036118753
-0.03465578 0.053667553 0.033966575
-0.034175184 0.057705622 0.038899202
0.033911385 0.057594642 0.039115664
0.035652429 0.057660751 0.036088772
-0.033442441 0.058365304 0.034087755
-0.02876164 0.055428661 0.037718717
0.033791058 0.0624207 0.039214402
0.033582464 0.06281741 0.036292907
-0.036317538 0.063701928 0.034410927
-0.033992574 0.067834385 0.038869079
-0.023816165 0.069999993 0.038267434
-0.016629657 0.069999993 0.03650853
-0.011326185 0.069999993 0.037026539
-0.0019085584 0.069999993 0.038985461
0.0029347017 0.069999993 0.036272183
0.0075820643 0.069999993 0.038067337
0.012936365 0.069999993 0.037170209
0.018632151 0.069999993 0.036967188
0.027840838 0.069999993 0.038224116
0.033878315 0.06834396 0.039142799
0.034884088 0.064603962 0.034780174
-0.035732504 0.07 0.036118682
-0.032622252 0.069999985 0.037401211
-0.027487494 0.069999985 0.037823174
-0.021494294 0.066586435 0.035975613
-0.017781669 0.066742934 0.034302741
-0.011588376 0.067193173 0.035410762
-0.0072538373 0.069999993 0.037332956
-0.0048208982 0.066259235 0.035402767
0.0033658198 0.060508411 0.035645381
0.0075648311 0.070000015 0.037537448
0.011160683 0.064451285 0.034657035
0.015921138 0.068272702 0.035872839
0.022390299 0.066500001 0.036889859
0.027442031 0.06693355 0.036031533
0.032872654 0.06874425 0.036779661
0.036548737 0.07 0.035897948
-0.028836221 -0.070000008 0.040338926
-0.030289792 3.7252903e-09 0.034436282
-0.016872063 -0.070000008 0.041724633
-0.013704732 -0.070000008 0.040007301
-0.0082119759 -0.070000008 0.041195661
-0.0033776711 -0.070000008 0.043259498
0.0017984792 -0.070000008 0.041034598
0.0070646731 -0.070000008 0.040175244
0.010590795 -0.070000008 0.043076761
0.017988255 -0.070000008 0.041726001
0.023873705 -0.070000008 0.04215911
0.032229166 -0.070000008 0.040441044
-0.029884761 -0.064980038 0.038181305
-0.028072547 -0.067423999 0.042442944
-0.021921471 -0.065493882 0.040141229
-0.017991524 -0.070000023 0.042929608
-0.012466398 -0.069999993 0.042410135
-0.008359083 -0.067328766 0.041328289
-0.0020806498 -0.065947436 0.038900618
0.0016653169 -0.067474991 0.042111561
0.0075197499 -0.070000023 0.04284865
0.012210862 -0.070000008 0.042305592
0.017847754 -0.069965556 0.042514689
0.022644022 -0.068160683 0.040912937
0.02669104 -0.065490194 0.041126881
0.032259729 -0.066984229 0.039702792
-0.029297804 -0.056845393 0.039617654
-0.027702022 -0.059274562 0.043416537
0.025519779 -0.059115466 0.041217878
0.031894196 -0.059530187 0.039791964
-0.031320181 -0.058005493 0.041241899
-0.026147863 -0.054428183 0.042391095
0.024914943 -0.054702312 0.040247008
0.031523015 -0.057462282 0.039937016
-0.03149594 -0.052191529 0.041097675
-0.026403714 -0.051394004 0.041905776
0.027238406 -0.050590072 0.043552902
0.030177031 -0.047292672 0.036105048
-0.028625486 -0.044024337 0.040112525
-0.028001087 -0.04747232 0.043686084
0.028436294 -0.0462153 0.042615134
0.029992122 -0.041652307 0.039957017
-0.029255873 -0.040126853 0.036792014
-0.02732132 -0.043254759 0.043018356
0.027804572 -0.042432144 0.04375577
0.029765662 -0.034699053 0.035760496
-0.031373471 -0.037793942 0.041198175
-0.028308963 -0.035596661 0.042720601
0.02823367 -0.036617626 0.042305309
0.031254798 -0.037079468 0.041295551
-0.03103219 -0.032934736 0.041478213
-0.027563248 -0.02800357 0.04093197
0.027725236 -0.031955305 0.041753016
0.031250495 -0.032567527 0.041299071
-0.031294379 -0.027103851 0.041263066
-0.027032418 -0.026712464 0.041148175
0.027776649 -0.027737414 0.04380428
0.031215198 -0.027460491 0.041328039
-0.031098317 -0.024269519 0.041068882
-0.026254887 -0.020791287 0.043414976
0.023438288 -0.022870915 0.038609788
0.032381516 -0.021252677 0.039265152
-0.030008119 -0.015040857 0.039169323
-0.028597111 -0.014508567 0.042337738
0.026140904 -0.013307976 0.040605795
0.03135746 -0.017430803 0.0412113
-0.029741263 -0.0094833504 0.038325619
-0.027398715 -0.011936994 0.041936915
0.026356807 -0.010562865 0.038613662
0.031706713 -0.01007925 0.040639739
-0.031110993 -0.0057301256 0.038002141
-0.027430791 -0.0061554043 0.041467458
0.027529437 -0.0077638077 0.040537637
0.028015401 -0.0070142173 0.040036477
-0.031524278 -0.002464114 0.041074421
-0.025805548 -0.0020150824 0.040806282
0.028231656 -0.0029196888 0.043513458
0.029760871 -0.0029317779 0.039890304
-0.029755419 0.00052053406 0.038094059
-0.026515573 8.3708961e-05 0.040589958
0.026925702 0.0082097016 0.037815358
0.03151663 0.0024703555 0.041080702
-0.031436723 0.0074792169 0.041146263
-0.028460413 0.0069600032 0.042708915
0.026293183 0.0086831236 0.043129161
0.028679715 0.0045122257 0.038805146
-0.030066146 0.01318651 0.039050076
-0.027568618 0.013230263 0.040322542
0.02786685 0.012569549 0.04373955
0.031462438 0.012399529 0.04112516
-0.02895996 0.014889924 0.040264491
-0.028167397 0.01731712 0.043573413
0.027886579 0.017380254 0.043735575
0.031446408 0.017445877 0.041138317
-0.029756561 0.023871396 0.037942119
-0.026403705 0.020119544 0.043364093
0.027912229 0.022507243 0.043722607
0.029905496 0.019901229 0.038432568
-0.028478233 0.024060853 0.040689997
-0.027137533 0.02500513 0.043344047
0.025216194 0.029405424 0.043124001
0.031138271 0.023023855 0.038646441
-0.031270482 0.03267438 0.041282672
-0.025379488 0.031212866 0.040648118
0.027727267 0.032853756 0.043823045
0.025477299 0.030562699 0.035465907
-0.03137536 0.037077237 0.041196618
-0.027116539 0.036362231 0.041352563
0.027317518 0.038136464 0.04206669
0.029007444 0.035578556 0.040976614
-0.031512927 0.042722482 0.041083738
-0.027759233 0.042388201 0.043813743
0.026370507 0.040276114 0.042067632
0.028401947 0.037026104 0.038198784
-0.031290155 0.047198951 0.041266534
-0.027944913 0.047756921 0.043691065
0.027495362 0.043914396 0.041269124
0.029150739 0.04817551 0.039319776
-0.031417429 0.052431334 0.041162092
-0.026024904 0.053018425 0.043349158
0.025853064 0.051532805 0.043281462
0.031373866 0.051577818 0.036535162
-0.031662866 0.058406144 0.040960699
-0.027885525 0.057254236 0.04372748
0.027859712 0.057465471 0.043760832
0.03122972 0.057339579 0.041316129
-0.03056993 0.059463285 0.037100665
-0.028010378 0.062610783 0.043664023
0.026149694 0.061262891 0.042167384
0.031279072 0.062641136 0.041275628
-0.031414803 0.067747042 0.041164253
-0.025620351 0.065281212 0.038286231
-0.0070074694 -7.4505806e-09 0.032750592
-0.010280039 0.069999993 0.042416908
-0.0085975155 0.069999993 0.040542483
-0.0023427315 0.069999993 0.043189857
0.0042451252 0.069999993 0.0426571
0.0078597106 0.069999993 0.043406013
0.014056399 0.069999993 0.041357964
0.023239164 0.069999993 0.04353923
0.027583146 0.067508236 0.043895762
0.03032236 0.060452603 0.041154027
-0.030997932 0.07 0.040788371
-0.028030368 0.070000023 0.041768473
-0.02296938 0.069107816 0.040885113
-0.016775142 0.06646052 0.040053792
-0.010957536 0.066775978 0.040619295
-0.0075944513 0.061764725 0.038683388
-0.0033526598 0.069921009 0.042523075
0.0014088044 0.066111125 0.041565094
0.0072111436 0.070000015 0.042694457
0.010812239 0.066920944 0.041675769
0.018289834 0.066206142 0.041413005
0.022409664 0.06588237 0.040928222
0.027405649 0.070000008 0.04193081
0.030386493 0.07 0.04115802
-0.017644972 -0.070000008 0.046535999
-0.0074477484 -0.070000008 0.047897313
0.0029144227 -0.070000008 0.048035726
0.0087914076 -0.070000008 0.045042828
0.012241822 -0.070000008 0.047376901
0.018777778 -0.070000008 0.046069313
-0.025270423 -0.067804627 0.045171008
-0.022622105 -0.067103073 0.045785472
-0.016921075 -0.067575246 0.04673145
-0.013389086 -0.067213841 0.047602758
-0.0068687168 -0.064379558 0.043061737
-0.0021217919 -0.069999985 0.047607731
0.0024221786 -0.066500001 0.04705365
0.0072953231 -0.07 0.047378443
0.011990412 -0.069129139 0.046719708
0.018470243 -0.068069525 0.046440683
0.021095699 -0.061768193 0.043614242
0.019705975 -0.040667977 0.026040299
-0.02525929 -0.062999688 0.045176957
-0.021700867 -0.054417569 0.043643393
-0.017594334 -0.061213814 0.046174109
-0.0091594784 -0.063129179 0.046715345
0.013984918 -0.062035233 0.049835719
0.018236099 -0.061957408 0.047996029
0.022494661 -0.062414985 0.046654914
0.025283698 -0.062389236 0.045163911
-0.025325352 -0.058752302 0.045141641
-0.0211378 -0.055405825 0.045836944
-0.017705809 -0.057421733 0.048707273
-0.014367248 -0.057450011 0.049719695
0.014089447 -0.05763752 0.049803998
0.017538598 -0.056158606 0.045650516
0.020932473 -0.056459937 0.04482374
0.025396148 -0.056858182 0.045103796
-0.025406394 -0.050233454 0.045098316
-0.022735491 -0.049311493 0.044527803
-0.01722241 -0.052406549 0.048853841
-0.014182225 -0.052629922 0.049775839
0.015554253 -0.055580717 0.04812723
0.016081274 -0.052166976 0.04791712
0.020694884 -0.049790528 0.045482326
0.025418166 -0.052949406 0.045092024
-0.025302295 -0.046835493 0.045153968
-0.020208452 -0.039901033 0.042669572
-0.01808835 -0.047442768 0.048590619
-0.014576028 -0.048052352 0.049656339
0.014259113 -0.047712848 0.049752507
0.016064176 -0.042546555 0.043409903
0.020639397 -0.045869689 0.046161529
0.025260888 -0.048006967 0.0451761
-0.025310596 -0.043374158 0.045149527
-0.02239765 -0.04213579 0.04670677
-0.016302936 -0.042583529 0.048544407
-0.01440421 -0.04170797 0.049708478
0.014156103 -0.042950302 0.049783774
0.018384911 -0.038487837 0.044296756
0.021542093 -0.035953753 0.040880255
0.018423647 -0.026619712 0.035562295
-0.025204828 -0.037649915 0.045206074
-0.022367408 -0.037669286 0.046722926
-0.015749766 -0.03547198 0.047421098
-0.014303967 -0.0386035 0.049738899
0.012983374 -0.031512167 0.04042593
0.015675833 -0.035013776 0.045613941
0.02242028 -0.037582073 0.046694674
0.025262296 -0.037411515 0.045175351
-0.013491699 -0.028056394 0.041866705
-0.02256613 -0.03254123 0.0466167
-0.01708487 -0.030588273 0.048239153
-0.014406369 -0.032485247 0.049707823
0.014165753 -0.033429123 0.049780838
0.017611088 -0.032403994 0.04873566
0.022267045 -0.032548293 0.046776593
0.025235657 -0.034751654 0.045189589
-0.025276493 -0.027534371 0.045167763
-0.022382922 -0.027530912 0.046714649
-0.014979002 -0.02172035 0.043321051
-0.014067063 -0.027426321 0.04981079
0.017884005 -0.028240222 0.045527458
0.016839959 -0.027793478 0.045321573
0.020808659 -0.024335658 0.04357595
0.025403347 -0.026754646 0.045099944
-0.020511812 -0.023493422 0.045334168
-0.020489732 -0.023472149 0.043688037
-0.017350895 -0.020833945 0.048764836
-0.0010782181 -0.026775489 0.037547458
0.01423593 -0.022494156 0.042655732
0.017013924 -0.022328934 0.048917055
0.020105962 -0.021721939 0.043901011
0.025392339 -0.021544296 0.04510583
-0.025341561 -0.018539125 0.045132976
-0.020745978 -0.014187922 0.044094704
-0.014933535 -0.016825993 0.044889659
-0.014262397 -0.017417282 0.049751513
0.011952002 -0.016626069 0.041439366
0.017313514 -0.019760486 0.04855039
0.020762138 -0.015744472 0.045902461
0.025250379 -0.01801677 0.045181721
-0.025367035 -0.012409717 0.045119356
-0.020710209 -0.011021838 0.041066766
-0.014621772 -0.016452309 0.042903367
-0.014220148 -0.012035406 0.049764331
0.014098629 -0.012077933 0.049801212
0.017644372 -0.01240628 0.048725631
0.02289292 -0.011414592 0.043785557
-0.02128269 -0.015965085 0.040546373
-0.022019222 -0.011150187 0.038939867
-0.01540191 -0.0078207869 0.045723461
-0.013899883 -0.0071697822 0.049861524
0.012123182 -0.015995279 0.037610382
0.016392525 -0.0053501767 0.046101719
0.021756517 -0.0072200834 0.044928718
0.025316451 -0.0084578842 0.045146398
-0.025281345 -0.0028211214 0.045165166
-0.022491606 -0.0028685241 0.046656549
-0.017370647 -0.002914506 0.048808794
-0.014353436 -0.0024196487 0.049723886
0.013950756 -0.0021852581 0.049846079
0.015052744 -0.0044139395 0.046128336
0.021462064 -0.00092087174 0.046098441
0.025186073 -0.0034326497 0.045216098
-0.025202109 0.0014842232 0.045207527
-0.021628397 0.00055459922 0.044176258
-0.017986363 0.003935894 0.048322655
-0.014328304 0.0027989261 0.049731508
0.014195917 0.0023429652 0.049771685
0.014047384 0.002863057 0.045019872
0.022334324 0.0026142022 0.046740625
0.025328485 0.003134679 0.045139965
-0.025393637 0.007591242 0.045105137
-0.022832766 0.0077881888 0.040378965
-0.017299717 0.0076728817 0.048830096
-0.014261322 0.0085803773 0.049751841
0.014174341 0.0071637379 0.049778234
0.018797273 0.0052742292 0.046441209
0.021413075 0.0087423427 0.045673214
0.020874057 0.0060536116 0.02109338
-0.025225233 0.012687824 0.045195166
-0.022303123 0.012658067 0.046757303
-0.016878994 0.010711333 0.048271447
-0.013900612 0.011456151 0.039756369
0.015757646 0.010569145 0.048745498
0.017231675 0.011732342 0.045516558
0.021375505 0.012068507 0.043979019
0.025300629 0.012671726 0.045154855
-0.02533951 0.018210053 0.045134075
-0.020975661 0.018538099 0.045521196
-0.016745588 0.013141863 0.041739609
-0.012726394 0.010343194 0.043263718
0.0097782128 0.017379506 0.048812598
0.017372316 0.018205473 0.047578365
0.022938833 0.015598158 0.04455439
0.025332779 0.016409004 0.04513767
-0.025306817 0.022152493 0.04515155
-0.022577217 0.022575183 0.04661078
-0.017477809 0.021197041 0.045081932
-0.014391148 0.023213252 0.049712442
0.014102521 0.02296499 0.049800031
0.017455179 0.022499124 0.048783038
0.022499207 0.023375703 0.044078957
0.016148411 0.015884703 0.044912305
-0.025507625 0.017383406 0.044711776
-0.020825095 0.023450086 0.04246489
-0.016153632 0.023206154 0.042072732
-0.01406047 0.026923642 0.04449825
0.011576825 0.030622635 0.047649223
0.01459651 0.021460004 0.046408337
0.021259787 0.023614245 0.041568123
0.025176097 0.027493129 0.045221429
-0.025319152 0.033355545 0.045144953
-0.022801096 0.031153291 0.046342324
-0.017342087 0.03243795 0.048817072
-0.014276441 0.032578401 0.049747247
0.014247469 0.032392789 0.049756043
0.016849274 0.031459931 0.048716974
0.021079948 0.030544672 0.040412087
0.025296038 0.032120306 0.045157313
-0.025330108 0.037215844 0.0451391
-0.021084165 0.035234109 0.046145543
-0.015337897 0.037532125 0.047031596
-0.014239801 0.037698522 0.049758371
0.016174464 0.040268585 0.047673654
0.015898429 0.037389081 0.047915254
0.020706709 0.038043775 0.043600388
0.025289027 0.037011672 0.045161065
-0.02514546 0.042107012 0.045237813
-0.022224175 0.0377586 0.045065284
-0.014311458 0.042354386 0.043303411
-0.010763274 0.038797434 0.04770299
0.014515056 0.04201946 0.049674843
0.0175153 0.042691294 0.048765041
0.022552211 0.041657671 0.044930313
0.025287466 0.042702824 0.045161892
-0.025241347 0.046842881 0.045186549
-0.02027031 0.046006527 0.044769589
-0.017671725 0.047797475 0.048717607
-0.014286122 0.04750346 0.049744308
0.0046541635 0.039463788 0.045458846
0.018447855 0.048102755 0.047534905
0.020984322 0.045916326 0.044823181
0.025328794 0.047362413 0.045139797
-0.025309663 0.053682774 0.045150027
-0.022539388 0.052307814 0.046630997
-0.016086077 0.047167778 0.045781516
-0.014194381 0.052401122 0.049772158
0.0094265323 0.049951389 0.039869376
0.017632643 0.05219214 0.048729457
0.020958651 0.047683045 0.044674989
0.018731806 0.043586023 0.043235864
-0.025274334 0.057886355 0.045168914
-0.022807684 0.057311721 0.04648757
-0.016757276 0.057599824 0.046992052
-0.014416097 0.057047803 0.049704868
0.014257151 0.057375629 0.049753103
0.018329581 0.056403551 0.047744155
0.022006726 0.054925602 0.046216287
0.025291333 0.05766055 0.045159828
-0.025268793 0.062357929 0.045171876
-0.021294614 0.060286064 0.042146903
-0.016933566 0.059827004 0.046719443
-0.010991854 0.060504381 0.04268093
0.013957142 0.063101649 0.049844146
0.017574321 0.062774315 0.04874691
0.022654355 0.062569208 0.046569541
0.025328308 0.062951207 0.045140065
-0.025125984 0.068811834 0.045248222
-0.022333153 0.067560509 0.046741255
-0.017634662 0.067816988 0.048654981
-0.013977287 0.068122186 0.049441155
-0.007982742 0.069999993 0.048278432
0.013582226 0.03639438 0.038107932
0.0013708737 0.069999993 0.046873972
0.0066525629 0.069999993 0.049129926
0.012740918 0.060258865 0.048984729
0.017291956 0.067460611 0.047697812
0.022567352 0.067194365 0.046599556
0.025289554 0.067040369 0.045160782
-0.025270518 0.07 0.045139682
-0.02239188 0.07 0.045805581
-0.01713839 0.070000015 0.047417227
-0.012653168 0.070000008 0.047197904
-0.0056431657 0.065788783 0.044105545
-0.0032504166 0.063823588 0.043876782
0.0031699101 0.063179761 0.04381603
0.0099781062 0.064910203 0.042711057
0.013538441 0.0690566 0.046031423
0.017418806 0.070000015 0.046975292
0.018228043 0.065036267 0.043071844
-0.0037699102 -0.070000008 0.050263502
0.0020357952 -0.070000008 0.05089473
-0.010477772 -0.065568931 0.048416816
-0.0058734682 -0.064326219 0.046651833
-0.0024324937 -0.064220414 0.048953697
0.0015941488 -0.066195577 0.05114799
0.0082996124 -0.064958312 0.048131779
0.013951339 -0.065579101 0.047871716
-0.011863329 -0.062208779 0.050479025
-0.0090334853 -0.056346398 0.048254501
-0.0017107094 -0.057053257 0.047392413
0.0021471558 -0.062410951 0.051788338
0.008390462 -0.063126341 0.048758164
0.010795875 -0.058327027 0.050198711
-0.010659605 -0.054505628 0.047414098
-0.0094900476 -0.057309285 0.04848228
-0.0028163411 -0.05741588 0.051722366
0.0029273247 -0.05384675 0.049944807
0.008198915 -0.053707663 0.048629232
0.010714558 -0.05508757 0.050053962
-0.010121748 -0.052924812 0.045232967
-0.0077735484 -0.052686743 0.051234264
-0.002319925 -0.052487273 0.051771317
0.0025640749 -0.052676976 0.051747236
0.0063903341 -0.052684691 0.050503004
0.011237483 -0.044920735 0.044995468
-0.013688766 -0.046356369 0.041580088
-0.0075532473 -0.046422921 0.048871052
-0.0025203852 -0.047326334 0.051751547
0.0033936186 -0.046177968 0.049419846
0.0085864225 -0.047269896 0.045485646
0.0098825665 -0.045921776 0.046232723
-0.011556962 -0.042251848 0.05057228
-0.0064428891 -0.039851405 0.047246695
-0.0025252879 -0.042749997 0.051751059
0.00239551 -0.041189972 0.049400199
0.0082584182 -0.042012874 0.047323987
0.011999927 -0.04328325 0.050438091
-0.010125824 -0.034401353 0.050032921
-0.0095730769 -0.034850702 0.045738578
-0.0028891813 -0.038281128 0.051377703
0.0029725928 -0.035031963 0.049078308
0.0076318271 -0.037709523 0.0512482
0.011968482 -0.037453838 0.050447118
-0.012031905 -0.030069437 0.05042769
-0.0068784538 -0.031598289 0.049792837
-0.0036331287 -0.031473417 0.046331573
0.0011537859 -0.032109261 0.048909336
0.0083680283 -0.032874297 0.05004691
0.011503271 -0.032728057 0.05058746
-0.011690262 -0.027649922 0.050530653
-0.0067646899 -0.024061529 0.048332591
-0.0019814828 -0.028585944 0.051279385
-0.00057058723 -0.025659667 0.047124773
0.0073655392 -0.022910165 0.04789491
0.011940863 -0.02737019 0.04832029
-0.0081387004 -0.019922398 0.047024425
-0.0072152922 -0.022753201 0.051289175
-0.0035478317 -0.021724572 0.050806943
0.0041016154 -0.02196696 0.048689932
0.0072752144 -0.022720532 0.051283292
0.011765882 -0.022160931 0.050508164
-0.011686412 -0.017318701 0.050533231
-0.0077295885 -0.019498285 0.051150903
-0.0025541924 -0.017547807 0.051748216
0.0027392867 -0.016166847 0.050705507
0.0050035664 -0.014844556 0.04568845
0.012273144 -0.014800694 0.047006354
-0.011489008 -0.012446576 0.050592486
-0.0068819388 -0.0085080443 0.048099134
-0.0032526632 -0.01192373 0.049440593
0.0021628037 -0.014143799 0.048516918
0.0078518456 -0.01231499 0.049554959
0.011442379 -0.0097104991 0.048763063
-0.012292802 -0.0057185148 0.05024505
