# .PCD v0.7 - Point Cloud Data file format
VERSION 0.7
FIELDS x y z
SIZE 4 4 4
TYPE F F F
COUNT 1 1 1
WIDTH 1227
HEIGHT 1
VIEWPOINT 0 0 0 1 0 0 0
POINTS 1227
DATA ascii
0.0072301757 -0.027616687 -0.066921972
-0.007230788 -0.022535615 -0.066878587
-0.0025434429 -0.022316102 -0.067500047
0.0025807905 -0.022687145 -0.067500032
0.0072711222 -0.022256676 -0.066753328
-0.0072228163 -0.017082203 -0.066864341
-0.0024892858 -0.01710964 -0.06750001
0.002487605 -0.017464697 -0.067500047
0.007255076 -0.017445959 -0.06685783
-0.0071531474 -0.012674679 -0.066934384
-0.003054366 -0.012548807 -0.06750004
0.0026701672 -0.012154835 -0.06750004
0.0070111919 -0.012724497 -0.067052625
-0.0073934109 -0.0074104373 -0.066992529
-0.0024094414 -0.0075175948 -0.06750004
0.0026070273 -0.0077448934 -0.067500003
0.0068951678 -0.0079038199 -0.0669076
-0.0073119691 -0.0029104284 -0.066733018
-0.0026867914 -0.0022279285 -0.067500032
0.0026141526 -0.0026451745 -0.06750004
0.0069447365 -0.0024344667 -0.067084841
-0.0071445019 0.0023554098 -0.067034937
-0.0025212653 0.0031461765 -0.067499995
0.0025492285 0.0025928488 -0.067500032
0.0071975146 0.0023579423 -0.067074873
-0.0069552702 0.0074381479 -0.066922486
-0.0025773796 0.0074110818 -0.067500003
0.0025108606 0.0077689458 -0.067500047
0.0071775168 0.0079022078 -0.067047529
-0.0069975057 0.012233997 -0.067078933
-0.002190636 0.012366341 -0.06750004
0.0020659722 0.011932473 -0.067500032
0.0071676979 0.012631713 -0.066854581
-0.0070269103 0.017713664 -0.067111112
-0.0024038083 0.017647132 -0.067500018
0.0026113892 0.017772872 -0.067500032
0.0072001168 0.017341588 -0.066807173
-0.0072182026 0.022470247 -0.066803284
-0.0025750771 0.020495893 -0.067488156
0.0024394479 0.022597425 -0.067500003
0.0073616784 0.022741789 -0.066896379
-0.0072058681 0.027235206 -0.067020983
-0.0024868324 0.027489955 -0.06750004
0.0023139813 0.027513323 -0.067500047
0.0070622107 0.027538171 -0.067053936
-0.0074073104 0.032234404 -0.066706397
-0.0023023428 0.032178864 -0.067500047
0.0019831639 0.032758582 -0.067500003
0.0071081147 0.032544304 -0.066880755
-0.0070203841 0.037264843 -0.066955544
-0.0029720846 0.037512418 -0.067500032
0.0027231886 0.037486531 -0.067500018
0.0073502511 0.037549563 -0.066600777
-0.0071104364 0.04268213 -0.067035653
-0.0023812074 0.042684294 -0.067500032
0.0027129836 0.042655636 -0.06750004
0.0071136649 0.04222364 -0.066921525
-0.0071847257 0.047442261 -0.066925831
-0.0024568404 0.047405295 -0.06750004
0.0027758186 0.047489166 -0.06750004
0.0072430549 0.047783777 -0.066905111
-0.0070194444 0.048860647 -0.06707295
-0.0027784514 0.052198913 -0.067500018
0.0025448564 0.052204553 -0.067500003
0.0069731968 0.052190542 -0.067178167
-0.0069231577 0.057383746 -0.066908307
-0.0026298156 0.057268418 -0.067500055
0.0029305324 0.057572611 -0.067500003
0.0072776787 0.057482984 -0.066789448
-0.0071786712 0.062673077 -0.067050345
-0.0030492698 0.062676877 -0.067500003
0.0024286294 0.06254486 -0.067500018
0.0069050286 0.062424675 -0.067009017
-0.0074100946 0.067609265 -0.066772535
-0.0021059553 0.067655437 -0.067500032
0.0025594437 0.067675665 -0.06750004
0.0073979557 0.067321189 -0.066986062
-0.0073331888 0.072093301 -0.066777214
-0.0025638009 0.072789088 -0.06750004
0.0024241281 0.072533131 -0.067500018
0.0072052367 0.072705448 -0.066963576
-0.0072071273 0.07740055 -0.066916928
-0.002154941 0.077381723 -0.067500003
0.0026396108 0.077642269 -0.067500032
0.0074888822 0.077212557 -0.066697925
-0.0072370782 0.082971618 -0.066804223
-0.0022326938 0.082568958 -0.067500025
0.0027499676 0.082273491 -0.06750004
0.0070851138 0.082494497 -0.067001566
-0.0070809745 0.087706558 -0.067040347
-0.0021594081 0.0872702 -0.067500032
0.00270374 0.087271348 -0.067500018
0.0073605236 0.087471679 -0.066915467
-0.0070351427 0.090951018 -0.067048647
-0.0026158825 0.091969721 -0.067500025
0.0024856834 0.092596129 -0.067500047
0.0070690988 0.092385717 -0.066991568
-0.0065706833 0.092222311 -0.066645622
-0.0024948698 0.095965803 -0.066599302
0.002574821 0.095880523 -0.066715673
0.0070361095 0.095753036 -0.066358626
-0.0071010496 -0.095910646 -0.062262561
-0.0023048809 -0.095999978 -0.062309433
0.0027884888 -0.095999978 -0.062554918
0.0069366549 -0.092115246 -0.062594555
-0.0079999994 -0.092467345 -0.062659457
0.0079999976 -0.0921771 -0.063120492
-0.0079999985 -0.087108538 -0.062878832
0.0079999957 -0.087573051 -0.062408399
-0.0079999985 -0.08242064 -0.062801115
0.0079999985 -0.08266113 -0.062529065
-0.0079999967 -0.077379212 -0.06219732
0.0078425026 -0.075573571 -0.062891312
-0.0079999967 -0.072606653 -0.062538661
0.0079999957 -0.072203942 -0.062600963
-0.0079999967 -0.067731589 -0.062299129
0.0080000004 -0.067164332 -0.062037297
-0.0080000004 -0.062688552 -0.06258446
0.0080000004 -0.062290907 -0.062446594
-0.0079999967 -0.057548515 -0.062241048
0.0077489489 -0.056916136 -0.062860765
-0.0079999976 -0.052216042 -0.062542036
0.0080000004 -0.052579176 -0.062776327
-0.0079999976 -0.047339927 -0.062407959
0.0079999976 -0.047857899 -0.062494814
-0.0079999976 -0.042612534 -0.062541857
0.0079999967 -0.042621087 -0.062914908
-0.0079999976 -0.037338804 -0.062420476
0.0079999967 -0.037807222 -0.062564865
-0.0079999976 -0.032638539 -0.06247304
0.0079834042 -0.033096805 -0.062565267
-0.0079999967 -0.027431658 -0.062487375
0.0079999985 -0.027526369 -0.06253612
-0.0079999994 -0.022681566 -0.062673695
0.0079999957 -0.022521462 -0.062411532
-0.0079999967 -0.017544191 -0.062577747
0.0079999967 -0.017642854 -0.062534779
-0.0079999967 -0.012595782 -0.062480703
0.0079999985 -0.01228347 -0.062684439
-0.0079999967 -0.0075575374 -0.062482633
0.0079999985 -0.0073908567 -0.062417705
-0.0079816412 -0.0042389925 -0.062407892
0.0079999957 -0.0025284148 -0.062603906
-0.0080000004 0.0024431294 -0.062682383
0.0080000004 0.002574269 -0.062393364
-0.0079999957 0.0071860841 -0.062847205
0.0078516444 0.00729849 -0.062529258
-0.0079999976 0.012322921 -0.062233511
0.0079999976 0.012670272 -0.062299464
-0.0079999948 0.017323725 -0.062786505
0.0079999994 0.017568028 -0.06218946
-0.0079999967 0.022515982 -0.062729321
0.0079999939 0.022112185 -0.062529355
-0.0079999985 0.027615905 -0.062597021
0.0079999957 0.027496722 -0.06207164
-0.0079999976 0.032457259 -0.062581256
0.0079999976 0.032604165 -0.062663823
-0.0079999957 0.037619159 -0.062575407
0.0079999976 0.037105523 -0.062379204
-0.0079999976 0.042927951 -0.062715992
0.0079999967 0.042454958 -0.062452432
-0.0079999957 0.047419809 -0.062551275
0.0080000013 0.047581211 -0.062680535
-0.0080000004 0.052196082 -0.06214555
0.0079999976 0.052797593 -0.062354948
-0.0079999967 0.057653915 -0.062604688
0.0079999967 0.057550732 -0.062351063
-0.0076379683 0.06249398 -0.062732972
0.0079999985 0.062676683 -0.062051252
-0.0079999994 0.067735277 -0.062760554
0.0079999985 0.067575946 -0.062381681
-0.0080000004 0.072045922 -0.062299803
0.0079999957 0.072288379 -0.062384486
-0.0079999985 0.07775984 -0.062396996
0.0079999967 0.077652939 -0.062697552
-0.0079999976 0.082943149 -0.062692285
0.0079999967 0.082739368 -0.062646322
-0.0080000004 0.087398164 -0.062899753
0.0079999967 0.087368615 -0.062157854
-0.0079999985 0.092205241 -0.062646598
0.0079999967 0.092479646 -0.062414508
-0.006645272 0.095908366 -0.062391076
-0.002453893 0.095999978 -0.062650576
0.0026052082 0.095999971 -0.062565401
0.0063797166 0.08906927 -0.062753998
-0.0070768436 -0.095854551 -0.057201874
-0.0026877604 -0.096000023 -0.057299823
0.0028449073 -0.095999978 -0.057498887
0.0073810969 -0.095774397 -0.057563018
-0.0079999985 -0.092375815 -0.057530887
0.0077194888 -0.091303781 -0.057633858
-0.0079999976 -0.087729059 -0.057233516
0.0079999985 -0.087297477 -0.057323739
-0.0079999967 -0.082513772 -0.057485249
0.0079999985 -0.08213596 -0.057607684
-0.0079999967 -0.077660471 -0.057053901
0.0077502532 -0.076063074 -0.057701111
-0.0079999957 -0.072575122 -0.057916943
0.0079999957 -0.072574697 -0.057311714
-0.0079999967 -0.06720522 -0.057338521
0.0080000013 -0.067698665 -0.057494011
-0.0079999967 -0.062375054 -0.057326145
0.0079999976 -0.062793486 -0.057394847
-0.0079999994 -0.057699312 -0.057488762
0.0079999985 -0.057712581 -0.057317972
-0.0079999967 -0.053136241 -0.057947446
0.0079999985 -0.052571472 -0.057421472
-0.0079999967 -0.047665577 -0.057238799
0.0079999967 -0.047176145 -0.057216194
-0.0079999967 -0.042666696 -0.057559986
0.0080000004 -0.042478267 -0.05710616
-0.0079999967 -0.037352592 -0.057892911
0.0079999985 -0.037511401 -0.057605963
-0.0079999985 -0.032634962 -0.057549987
0.0080000004 -0.032453537 -0.057771742
-0.0080000013 -0.0269008 -0.057034727
0.0079999976 -0.027726859 -0.05741347
-0.0079999967 -0.022167234 -0.057142507
0.0079999976 -0.022447236 -0.057615496
-0.0079999967 -0.017871041 -0.057672825
0.0079999967 -0.017282004 -0.057813562
-0.0079999985 -0.012243797 -0.057294264
0.0075999983 -0.010458928 -0.058080085
-0.0080000004 -0.0076709259 -0.057007082
0.0079999976 -0.0075226519 -0.057737455
-0.0080000004 -0.0025640172 -0.057724778
0.0079999976 -0.0024524361 -0.057233118
-0.0079999939 0.0027635805 -0.057571355
0.0079999967 0.0026256749 -0.05762437
-0.0080000004 0.0070721027 -0.057897903
0.0079999967 0.0075729312 -0.05736392
-0.0079999967 0.01251206 -0.057547126
0.0079999976 0.012930979 -0.057069633
-0.0079999976 0.01726646 -0.057037752
0.0079999994 0.017590191 -0.05731694
-0.0079999967 0.022702368 -0.057614107
0.0079999976 0.022309793 -0.057385299
-0.0079999967 0.027814457 -0.057663247
0.0077721016 0.02587378 -0.057581048
-0.0079999985 0.032750022 -0.057402164
0.0080000004 0.032608099 -0.057730339
-0.0079999976 0.03745972 -0.057149254
0.0079999967 0.037673526 -0.057141922
-0.0079999967 0.042445648 -0.057595022
0.0079999994 0.042561762 -0.05766692
-0.0079999994 0.047722325 -0.057966955
0.0079999985 0.047410753 -0.057787877
-0.0080000013 0.052294444 -0.057594154
0.0079999967 0.052481074 -0.057190429
-0.0079999994 0.057831936 -0.057897933
0.0079999957 0.057572957 -0.057350256
-0.0079999957 0.06254252 -0.057660334
0.0075151529 0.06241899 -0.057339732
-0.0079999967 0.067576431 -0.057348765
0.0079999985 0.067650497 -0.057827115
-0.0077144755 0.070667587 -0.057740178
0.0079999976 0.072724201 -0.056879982
-0.0079999957 0.077513769 -0.057501059
0.0079999985 0.077815011 -0.057860423
-0.0079999957 0.082488298 -0.057723865
0.0079999976 0.082918197 -0.05744829
-0.0080000013 0.087176181 -0.057474483
0.0080000004 0.0872133 -0.057701528
-0.0079999994 0.092516862 -0.058288705
0.0079999967 0.092570119 -0.057479654
-0.0068936143 0.095906556 -0.057775058
-0.0027304525 0.095999978 -0.057842914
0.0025598167 0.096000023 -0.057794735
0.0069202357 0.095899604 -0.057431489
-0.0067151841 -0.095853142 -0.052430596
-0.0024538951 -0.095999986 -0.052373566
0.0019597507 -0.095400147 -0.053015634
0.006761773 -0.095948756 -0.052986074
-0.0079999967 -0.092428498 -0.052867752
0.0079999967 -0.092693157 -0.052273445
-0.0079999967 -0.087448597 -0.052448072
0.0079999985 -0.087468401 -0.052780144
-0.0079999967 -0.082454629 -0.052449852
0.0075675678 -0.081979074 -0.052496664
-0.0079999985 -0.07745783 -0.052568529
0.0080000004 -0.077330403 -0.052475631
-0.0079999948 -0.072615609 -0.052561581
0.0079999957 -0.072570316 -0.052325748
-0.0079999994 -0.067545682 -0.052256331
0.0079999967 -0.067185476 -0.052342087
-0.0079999967 -0.062079411 -0.052708648
0.0079999957 -0.06243293 -0.052528862
-0.0079999976 -0.05757989 -0.052136209
0.0079999985 -0.057493854 -0.052466832
-0.0080000004 -0.052509628 -0.052280456
0.0079999994 -0.053008977 -0.052785903
-0.0079999994 -0.045353837 -0.052826524
0.0079999967 -0.047970954 -0.052238431
-0.0079999967 -0.041987639 -0.052295141
0.0075789462 -0.042426519 -0.052748833
-0.0079999994 -0.037773989 -0.052739237
0.0080000004 -0.037430577 -0.052573834
-0.0079999967 -0.032258529 -0.052372389
0.0080000004 -0.032390453 -0.052694444
-0.0080000004 -0.027552992 -0.052120343
0.0079999976 -0.027448013 -0.052411307
-0.0079999957 -0.022422202 -0.052454453
0.0079999957 -0.022713875 -0.052607398
-0.0076190457 -0.018063102 -0.052271079
0.0079999985 -0.018098364 -0.052064504
-0.0079999994 -0.012704505 -0.05222122
0.0079999976 -0.012097689 -0.052867018
-0.0079999967 -0.0075185369 -0.052291714
0.0076666637 -0.0057974169 -0.052574269
-0.0080000013 -0.0024522296 -0.05259994
0.0079999985 -0.0023494849 -0.052272312
-0.0075957444 0.0032477211 -0.052966952
0.0079999985 0.002644134 -0.052838095
-0.0079999994 0.0076649515 -0.052450266
0.0080000004 0.0076135006 -0.052113675
-0.0079999967 0.012337764 -0.052478299
0.0080000004 0.012211405 -0.052141201
-0.0079999976 0.017502435 -0.052433494
0.0079999976 0.017396843 -0.05255536
-0.0080000013 0.022833275 -0.052191541
0.0079999985 0.02224624 -0.052765246
-0.0079999957 0.027591702 -0.05273547
0.0079999985 0.02731212 -0.052651998
-0.0080000004 0.032442112 -0.052590221
0.0079999985 0.032690268 -0.052324448
-0.0079999976 0.037634712 -0.052153278
0.0079999976 0.037540864 -0.052608814
-0.0079999976 0.040012818 -0.052429486
0.0080000013 0.042159099 -0.052386124
-0.0079999976 0.047737587 -0.052835446
0.0080000004 0.047382243 -0.052406382
-0.0079999976 0.052543987 -0.052663602
0.0079999967 0.052450392 -0.052709311
-0.0079999976 0.057026416 -0.052408073
0.0079999994 0.057546869 -0.05227381
-0.0080000004 0.062710546 -0.052871678
0.0079999976 0.062291894 -0.051995806
-0.0079999967 0.067452148 -0.052827735
0.0080000013 0.067396164 -0.052800562
-0.0080000013 0.07251431 -0.052304421
0.00763227 0.068448208 -0.05288874
-0.0080000004 0.07768669 -0.052011408
0.0079999976 0.077566572 -0.052715167
-0.0079999967 0.082547583 -0.052585933
0.0079999994 0.082476631 -0.053161066
-0.0080000004 0.087568551 -0.052907843
0.0078708204 0.087449864 -0.053001449
-0.0079999985 0.092668891 -0.052536804
0.0079999939 0.092405498 -0.052427974
-0.0068421164 0.095860705 -0.052117277
-0.0026259015 0.095999978 -0.052589994
0.0024198422 0.096000008 -0.052578792
0.0071668746 0.095791362 -0.052719098
-0.0071857804 -0.095754266 -0.047216415
-0.0024290006 -0.095999986 -0.04736628
0.0025454836 -0.095999978 -0.047514021
0.0068720058 -0.095889471 -0.046989895
-0.0079999957 -0.092320964 -0.047412761
0.0079999976 -0.092668794 -0.047823194
-0.0079999957 -0.085938431 -0.047327079
0.0079999994 -0.087367401 -0.047808975
-0.0080000004 -0.082769975 -0.047837354
0.0079999994 -0.082419723 -0.04735342
-0.0076934081 -0.073086448 -0.048363112
0.0079999957 -0.077633575 -0.047524862
-0.0075999983 -0.071371034 -0.047504198
0.0079999957 -0.072300054 -0.047805078
-0.0079999985 -0.067123614 -0.047589783
0.0079999976 -0.067596696 -0.047718816
-0.0079999985 -0.062765576 -0.047610991
0.0079999994 -0.062270697 -0.047912799
-0.0079999967 -0.057517607 -0.047500089
0.0079999967 -0.057771541 -0.047897547
-0.0080000013 -0.052621562 -0.047681585
0.0079999957 -0.052579619 -0.047688223
-0.0076734652 -0.046114437 -0.047597762
0.0079999967 -0.047436796 -0.047285158
-0.0079999967 -0.042008143 -0.047407057
0.0079999985 -0.042264506 -0.047177725
-0.0080000013 -0.037563529 -0.047977321
0.0079999985 -0.037280098 -0.046830449
-0.0079999985 -0.032262504 -0.047291435
0.0075789471 -0.030549847 -0.048068304
-0.0080000013 -0.027573718 -0.047212485
0.0079999957 -0.027663248 -0.047190133
-0.0080000004 -0.022856981 -0.047889598
0.0068310993 -0.022819562 -0.049253788
-0.0079999967 -0.017875424 -0.047431134
0.0079999957 -0.017599525 -0.047490772
-0.0080000013 -0.012212993 -0.047046259
0.0079999957 -0.012658348 -0.047798872
-0.0079999985 -0.0078129917 -0.047563408
0.0077746538 -0.0088162841 -0.047657691
-0.0079999985 -0.002616572 -0.047077302
0.0079922071 -0.0047352826 -0.047991641
-0.0079999957 0.0024797814 -0.047303762
0.0074482765 0.0036065646 -0.048320338
-0.0079999976 0.0072807209 -0.047582354
0.0079999976 0.0074597043 -0.047633652
-0.0080000013 0.012221971 -0.047440387
0.0079999985 0.012984437 -0.047284354
-0.0075675678 0.019618008 -0.048311781
0.0079999985 0.01768285 -0.047161717
-0.0079999985 0.02250172 -0.047788415
0.0079999948 0.023017501 -0.047377262
-0.0079999967 0.02735059 -0.047147911
0.0080000004 0.027807988 -0.046879053
-0.007991395 0.031737246 -0.047416911
0.0079999976 0.032759622 -0.047755327
-0.0075428579 0.035741284 -0.047119733
0.0079999985 0.037704334 -0.047310147
-0.0079999985 0.04264662 -0.047425292
0.0079999976 0.042897452 -0.047548577
-0.0079999957 0.047343921 -0.047683608
0.0079999976 0.047809657 -0.04721196
-0.0075428579 0.050138619 -0.048025712
0.0080000013 0.052226387 -0.047704421
-0.0079999967 0.057749055 -0.047178198
0.0079999976 0.057236962 -0.047364555
-0.0079999985 0.062117763 -0.047861058
0.0079999976 0.062499944 -0.047566187
-0.0079999976 0.067469098 -0.047981944
0.0079999985 0.067398861 -0.047286671
-0.0079999994 0.07253366 -0.047290541
0.0079999967 0.072039515 -0.04759378
-0.0079999985 0.077798575 -0.047659546
0.0079999967 0.077610776 -0.047577474
-0.0077582346 0.079688065 -0.048188031
0.0079999976 0.082435295 -0.047363732
-0.0076152505 0.085375994 -0.047588132
0.0079999976 0.08763282 -0.047269952
-0.0079999976 0.092586108 -0.047465026
0.0079999976 0.092263021 -0.047083702
-0.0068044341 0.095934838 -0.047889367
-0.0023971458 0.095999971 -0.0472975
0.0025396459 0.095999993 -0.047534473
0.0070536779 0.095848635 -0.047286838
-0.0071609323 -0.09576796 -0.042857412
-0.0030877178 -0.095999978 -0.042233653
0.0026170316 -0.096000008 -0.042570744
0.0070813047 -0.094607279 -0.043260463
-0.0079999967 -0.092655621 -0.042917117
0.0079999985 -0.092596427 -0.042776637
-0.0076256688 -0.084221415 -0.04330118
0.0080000004 -0.087772697 -0.042530116
-0.0080000004 -0.082081385 -0.042802524
0.0079999994 -0.082441717 -0.042362917
-0.0079999994 -0.07758674 -0.042375088
0.0079999967 -0.077750057 -0.042764787
-0.0079999948 -0.072491333 -0.042462122
0.0079999967 -0.072667018 -0.042742386
-0.0079999967 -0.067433074 -0.042178351
0.0079999985 -0.067736469 -0.042467661
-0.0080000004 -0.062666312 -0.042635594
0.0079999976 -0.062294852 -0.042380515
-0.0080000004 -0.057143129 -0.042874992
0.0080000004 -0.057766929 -0.042760916
-0.0080000004 -0.052408949 -0.042611331
0.0079999957 -0.052568577 -0.042264394
-0.0079999994 -0.048026148 -0.042414412
0.00776465 -0.047384154 -0.042745072
-0.0080000013 -0.042514585 -0.042400207
0.0077302833 -0.04351566 -0.043457463
-0.0080000013 -0.037393413 -0.042926788
0.0079999948 -0.037295461 -0.042421725
-0.0079999985 -0.032807462 -0.042497218
0.0079999985 -0.032701738 -0.042260639
-0.00775568 -0.024914717 -0.042613551
0.0079999985 -0.027750095 -0.042586297
-0.0079999967 -0.022424746 -0.042592783
0.0079999985 -0.021987736 -0.042496793
-0.0079999976 -0.017283944 -0.042189341
0.0079999967 -0.01779875 -0.042779487
-0.0080000004 -0.012619216 -0.042636417
0.007891872 -0.012004062 -0.042916652
-0.0079999976 -0.0075733671 -0.042132344
0.0079999939 -0.0073417365 -0.042233847
-0.0079999957 -0.0022360901 -0.042437036
0.0079999976 -0.0024322015 -0.042252187
-0.0080000004 0.002626461 -0.042613197
0.0079999994 0.0022177231 -0.042591199
-0.0079999985 0.0074229622 -0.042121653
0.0079999976 0.0076681045 -0.042717319
-0.0079999976 0.01233944 -0.042454608
0.0079999957 0.012643388 -0.042705592
-0.0079999976 0.017468316 -0.0423421
0.0079999976 0.017590014 -0.042520221
-0.0076279049 0.020311275 -0.042669669
0.0079999994 0.022637667 -0.042491864
-0.0079999994 0.027407786 -0.042817127
0.0079999967 0.026409769 -0.042407241
-0.0079999994 0.032835882 -0.042661849
0.0079999976 0.032478854 -0.042465646
-0.0077671055 0.037279505 -0.043412495
0.0079999976 0.0378123 -0.042339124
-0.0080000004 0.042506207 -0.042598631
0.0079999967 0.042742379 -0.04264136
-0.0079999994 0.047582213 -0.042531665
0.0079999976 0.047359776 -0.042556044
-0.0079999976 0.05304474 -0.04254229
0.0076097539 0.050138343 -0.042428114
-0.0079999967 0.057123434 -0.042492535
0.0079999957 0.057473667 -0.042379465
-0.0080000004 0.062094647 -0.042313591
0.0079894727 0.060305931 -0.042476963
-0.0079999967 0.067463793 -0.041973937
0.0079999985 0.067249656 -0.042166546
-0.0079999967 0.072578736 -0.042606939
0.0076279058 0.071434498 -0.04305299
-0.0080000013 0.074767724 -0.042493504
0.0078864386 0.076199852 -0.042924117
-0.0079999967 0.081955507 -0.042283248
0.0079999967 0.082396716 -0.042497806
-0.0075294119 0.083953097 -0.043062337
0.0079999985 0.087437414 -0.042665053
-0.0079999985 0.092411555 -0.042475305
0.0079999985 0.092162676 -0.042532232
-0.0066370326 0.095894925 -0.042576835
-0.0029165572 0.095999978 -0.042392228
0.0023409217 0.095999971 -0.042529821
0.0069118924 0.092058726 -0.042696394
-0.0068782782 -0.095913202 -0.037033692
-0.0024378425 -0.095999978 -0.03767046
0.0024977052 -0.095999978 -0.03811942
0.0069879214 -0.094634078 -0.037570287
-0.0079999985 -0.092410512 -0.037653055
0.0079999967 -0.09272597 -0.037469018
-0.0079999976 -0.088094108 -0.037890442
0.0079999967 -0.087131657 -0.037892848
-0.0075675668 -0.08260271 -0.038098671
0.0079999976 -0.082726412 -0.037594158
-0.0079999976 -0.077375136 -0.037852731
0.0079999967 -0.077715985 -0.037318815
-0.0079999967 -0.072514601 -0.037849478
0.0079999976 -0.072445922 -0.03765858
-0.0079999976 -0.067225255 -0.037312131
0.0076666637 -0.067791156 -0.037461024
-0.0079999976 -0.062463097 -0.037895888
0.0079999985 -0.06229176 -0.037360631
-0.0080000013 -0.057664044 -0.037382353
0.0079999948 -0.057449833 -0.037325017
-0.0078778593 -0.049258672 -0.037935596
0.0079999967 -0.052284658 -0.037555739
-0.0079999994 -0.047540527 -0.037289005
0.0079999967 -0.047681473 -0.037277423
-0.0079999976 -0.042525031 -0.037744876
0.0079999994 -0.042646378 -0.037538759
-0.0079999967 -0.037535679 -0.03737016
0.0079999994 -0.037667703 -0.03734329
-0.0080000004 -0.032442883 -0.037335645
0.0079999957 -0.031421676 -0.03786698
-0.0075966581 -0.028446164 -0.038062144
0.007555556 -0.025564458 -0.037649374
-0.0079999994 -0.022789799 -0.037478358
0.0079999994 -0.022853851 -0.037706014
-0.0079999985 -0.017556367 -0.037298582
0.0079999976 -0.017776374 -0.037454449
-0.0076279044 -0.013306675 -0.037845705
0.0079999967 -0.012896618 -0.037409637
-0.0079816496 -0.0092176851 -0.03770984
0.0080000004 -0.0076342355 -0.037603036
-0.0079999976 -0.0021941112 -0.037619844
0.0077564074 -0.0042769951 -0.038208298
-0.0079999976 0.0027345533 -0.03768041
0.0079999985 0.002166227 -0.03752242
-0.0079999976 0.0076926514 -0.037374474
0.0079999967 0.0077793174 -0.037159067
-0.0079999967 0.012446026 -0.037629064
0.0079999976 0.012289246 -0.037273884
-0.0079999985 0.017396653 -0.037190359
0.0080000013 0.017406851 -0.037223242
-0.0079999957 0.022577424 -0.037507348
0.0079999976 0.022431554 -0.037243545
-0.0079999967 0.027705522 -0.037537046
0.0079999985 0.027621854 -0.03756161
-0.0079999976 0.032295879 -0.03731842
0.0077253189 0.02929814 -0.037678983
-0.0079999976 0.037413929 -0.037570167
0.0079999976 0.037674829 -0.037313316
-0.0080000004 0.042508159 -0.037271801
0.0079999976 0.042560294 -0.037621781
-0.0079999967 0.047436461 -0.037571706
0.0080000004 0.045733884 -0.03810861
-0.0075899423 0.051129729 -0.037478518
0.0079999985 0.052443109 -0.037603617
-0.0080000013 0.057066306 -0.037639916
0.0075789462 0.056786668 -0.037506837
-0.0079999957 0.06221373 -0.037716564
0.0070000011 0.06072472 -0.038927373
-0.007555556 0.066974409 -0.038417954
0.0079999976 0.067262031 -0.037381113
-0.0076521719 0.071963422 -0.037499435
0.0079999957 0.072395854 -0.037399046
-0.0079999967 0.077404022 -0.03769657
0.0080000004 0.077839389 -0.038098119
-0.0080000004 0.082600266 -0.037586961
0.0079999967 0.082871512 -0.0376692
-0.0065714256 0.084203787 -0.039143041
0.0079999967 0.087372012 -0.037177958
-0.0073975921 0.085255697 -0.039003324
0.0079999985 0.090563618 -0.038146511
-0.00695494 0.095804304 -0.037387405
-0.0023027549 0.093197316 -0.03802957
0.0024339189 0.096000008 -0.037427448
0.0066782418 0.095934041 -0.037686709
-0.0070140339 -0.095857441 -0.03233337
-0.0022004843 -0.095999993 -0.032541905
0.0026654892 -0.095999993 -0.032340828
0.006845843 -0.09587875 -0.032468867
-0.0080000013 -0.092969716 -0.033027053
0.0079943212 -0.092183299 -0.033148244
-0.0079999985 -0.087798916 -0.032559805
0.0079999976 -0.087334901 -0.032768413
-0.0079999985 -0.082071558 -0.032263927
0.0079999994 -0.082791187 -0.032544252
-0.0079999957 -0.077353731 -0.032185357
0.0075000008 -0.073009171 -0.033641983
-0.0079999985 -0.072658844 -0.032523718
0.0080000004 -0.072136365 -0.031851649
-0.0080000013 -0.067225039 -0.032839123
0.0076293424 -0.06799721 -0.032764081
-0.0079999994 -0.062470097 -0.032381158
0.0079999976 -0.062273633 -0.032844543
-0.0079999967 -0.057408631 -0.032798976
0.0077019311 -0.053111855 -0.032977227
-0.0079999994 -0.052897193 -0.032158483
0.0080000004 -0.052421331 -0.032469701
-0.0079999994 -0.047720466 -0.032352794
0.0079999985 -0.04762226 -0.03258108
-0.0079999967 -0.042462379 -0.032922227
0.0079999985 -0.042695533 -0.031912349
-0.0079999976 -0.036214329 -0.032533806
0.0079999985 -0.037918687 -0.032552075
-0.0079999957 -0.032552302 -0.032620218
0.0079999985 -0.032922152 -0.032521237
-0.0079999994 -0.02731063 -0.032597639
0.0079999976 -0.027420193 -0.032673117
-0.0076651284 -0.019807711 -0.03328824
0.0079999985 -0.022402007 -0.032262273
-0.0079911742 -0.018345274 -0.033020359
0.0079999976 -0.017849116 -0.032650914
-0.0079999976 -0.012242253 -0.032638203
0.0080000004 -0.012942899 -0.033742718
-0.0079999985 -0.0065191011 -0.03252393
0.0079999957 -0.0078905737 -0.032189738
-0.0079999967 -0.0019523937 -0.032969952
0.0079999976 -0.0040275757 -0.032989237
-0.0079999985 0.0021399627 -0.032490205
0.0079999967 0.002818485 -0.032468569
-0.0079999948 0.0078413729 -0.032673083
0.0079999985 0.007718124 -0.032526378
-0.0079999976 0.012251661 -0.032771695
0.0079752728 0.014370686 -0.033485025
-0.0079999976 0.017446056 -0.032270335
0.0079999994 0.017145263 -0.032528125
-0.0079999967 0.021651834 -0.03234259
0.0079999994 0.022228027 -0.032146413
-0.0079999985 0.027352586 -0.032620195
0.0080000004 0.027533699 -0.032529693
-0.0080000013 0.032456636 -0.032819625
0.0079999976 0.031789396 -0.032646623
-0.0080000013 0.033738963 -0.032397389
0.0079999967 0.03786613 -0.03287936
-0.0080000004 0.042206638 -0.032469455
0.0079999985 0.042690296 -0.032411717
-0.0080000013 0.047213044 -0.032642443
0.0080000013 0.047318306 -0.03266149
-0.0079999957 0.052490648 -0.03240126
0.0079999985 0.052836493 -0.032311149
-0.0080000004 0.057558794 -0.032704543
0.0079999985 0.057282861 -0.032608401
-0.0079999994 0.062358633 -0.032918926
0.0079999976 0.062493626 -0.031986468
-0.0079999976 0.067915462 -0.03271392
0.0079999994 0.066074252 -0.033365466
-0.0079999985 0.072664201 -0.032606058
0.0079999976 0.07261584 -0.032409959
-0.0080000013 0.07736481 -0.032183859
0.0079999985 0.077107757 -0.032160465
-0.0079999957 0.082413562 -0.032963187
0.0079999985 0.082573541 -0.03286029
-0.0079999957 0.087789394 -0.032592669
0.0079999967 0.087624259 -0.032768283
-0.0079999985 0.090114698 -0.032631408
0.0079999985 0.092682071 -0.032544658
-0.0070427819 0.095810562 -0.032881066
-0.0022800327 0.095999978 -0.032692015
0.002364856 0.095999978 -0.032170843
0.0071765864 0.095813379 -0.032954596
-0.0066897292 -0.09591949 -0.028138429
-0.0017996542 -0.09527047 -0.0288211
0.0024066023 -0.095999978 -0.027274188
0.0067913933 -0.091398768 -0.027735295
-0.0075999983 -0.092477456 -0.028060431
0.0079999976 -0.092568159 -0.027344018
-0.0079999957 -0.087365508 -0.027264962
0.0079999976 -0.087804243 -0.027393946
-0.0079999967 -0.082583614 -0.027421087
0.0080000013 -0.082830459 -0.027971841
-0.0079999985 -0.07824187 -0.02783671
0.0079999957 -0.077434406 -0.027514456
-0.0079999976 -0.072391838 -0.027469395
0.0079999985 -0.072851941 -0.027616877
-0.0078434637 -0.065823168 -0.028969826
0.0079999948 -0.067467056 -0.027343096
-0.0076734661 -0.06174336 -0.027832812
0.0079770721 -0.060721003 -0.028837405
-0.0079999994 -0.057492394 -0.027185908
0.0080000004 -0.057794381 -0.027190913
-0.0080000013 -0.052474894 -0.027658202
0.0080000004 -0.052299421 -0.027420735
-0.0079999967 -0.047413584 -0.027509706
0.0079999967 -0.047709592 -0.027480399
-0.0079999967 -0.042226486 -0.027529836
0.007542857 -0.03874338 -0.028111648
-0.0079999994 -0.037738461 -0.027334332
0.0077669565 -0.035871867 -0.028309373
-0.0079999994 -0.032393329 -0.027828509
0.0076363608 -0.033672988 -0.028051499
-0.0079999985 -0.028416373 -0.028591499
0.0079999976 -0.028347328 -0.027794275
-0.0079999985 -0.022610972 -0.027741294
0.0076097543 -0.020232158 -0.028234391
-0.0079999967 -0.019343983 -0.028212994
0.0077189957 -0.014675789 -0.027967915
-0.0079999948 -0.012709372 -0.027398003
0.0079999948 -0.012553852 -0.027573189
-0.0079999976 -0.0078347325 -0.027400747
0.0079999976 -0.0076083192 -0.02718373
-0.0079999967 -0.0020514263 -0.027533544
0.0079999976 -0.001944977 -0.028194297
-0.0079999976 0.0021719579 -0.02739615
0.0079999976 0.0028125667 -0.027573219
-0.0079999957 0.0074125221 -0.027396796
0.0079999994 0.0074386895 -0.027473284
-0.0080000004 0.012601985 -0.027457867
0.0079791462 0.01058084 -0.028083138
-0.0079999957 0.01781093 -0.02742945
0.0079999994 0.017665463 -0.02767203
-0.0079999976 0.019986218 -0.027475024
0.0079999994 0.022800472 -0.027640378
-0.0079999967 0.027566584 -0.027625361
0.0079833325 0.028537616 -0.02795491
-0.0079999994 0.03278457 -0.027460163
0.0079999967 0.032518193 -0.027391506
-0.0075682355 0.036626667 -0.027223131
0.0079912813 0.036331728 -0.027484797
-0.0079999985 0.042488787 -0.027353218
0.0079999976 0.042860683 -0.027664993
-0.0079999976 0.047549479 -0.027571617
0.0079999985 0.047317076 -0.027614798
-0.0080000004 0.052535709 -0.026905235
0.0079999948 0.052735861 -0.027548403
-0.0080000004 0.057668302 -0.02818157
0.0080000004 0.057965595 -0.027512327
-0.0076666633 0.061703056 -0.0282334
0.0079999967 0.062442597 -0.02798745
-0.0079999967 0.067420244 -0.027590789
0.0080000004 0.067787439 -0.027582755
-0.0079999976 0.072569251 -0.027394671
0.0075897421 0.070391402 -0.027759962
-0.0080000004 0.077748239 -0.027375082
0.0079999976 0.078005537 -0.027351547
-0.0079999994 0.082625642 -0.027540343
0.0077619399 0.081146732 -0.028264347
-0.0076239114 0.084414087 -0.028760275
0.0079999994 0.087305441 -0.027679801
-0.0079999994 0.092848346 -0.02795334
0.0079999994 0.092622742 -0.027667116
-0.0069987904 0.095888473 -0.027708802
-0.002614944 0.095999971 -0.027311062
0.0024424032 0.09211614 -0.028449807
0.0063246726 0.092444815 -0.028238127
-0.0069727311 -0.095823631 -0.02209932
-0.0024996654 -0.091723934 -0.022359734
0.0023498056 -0.095999971 -0.022200782
0.0070761489 -0.09585917 -0.022772301
-0.0079999976 -0.092327848 -0.022299673
0.0080000004 -0.092589498 -0.022222616
-0.0072679953 -0.086699575 -0.024615422
0.0078409687 -0.082500733 -0.022976389
-0.0079999994 -0.081622027 -0.022811294
0.0080000013 -0.082463808 -0.022328364
-0.0079999976 -0.077926762 -0.022045508
0.0080000013 -0.077716641 -0.023147311
-0.0079999976 -0.072516181 -0.022490956
0.0079999985 -0.072218627 -0.022315243
-0.0079999948 -0.067735098 -0.022577414
0.0079999976 -0.067728646 -0.02263342
-0.0079999985 -0.062800147 -0.022735896
0.0080000004 -0.062776946 -0.022511644
-0.0079999994 -0.057566445 -0.022920227
0.0079999976 -0.057187945 -0.022949433
-0.0079999976 -0.052233089 -0.022541896
0.0079999994 -0.052581698 -0.022472745
-0.0079999985 -0.047346342 -0.022595365
0.0076399189 -0.047740269 -0.022764979
-0.0079999976 -0.042290419 -0.022453999
0.0075897421 -0.03997631 -0.022715751
-0.0080000004 -0.037732776 -0.022424497
0.007863896 -0.033995856 -0.022984991
-0.0079999957 -0.031399265 -0.022695919
0.0079999976 -0.031916045 -0.022704041
-0.0076723853 -0.023943432 -0.023355763
0.0079999948 -0.027415177 -0.022317531
-0.007589743 -0.019766331 -0.022526763
0.0074838717 -0.019111011 -0.022661559
-0.0075457478 -0.019007932 -0.02349139
0.0080000013 -0.017938426 -0.022668196
-0.0080000004 -0.012815797 -0.022629455
0.0079999957 -0.013863162 -0.0232959
-0.0079999985 -0.007280028 -0.02364842
0.0079999985 -0.0076571661 -0.022245413
-0.0079999957 -0.0025196394 -0.022356626
0.0075151529 -0.0028603547 -0.023025535
-0.0079999948 0.0030509355 -0.022435283
0.0079999967 0.0023892533 -0.0226303
-0.0079999976 0.0062654517 -0.022915592
0.0080000013 0.0074503748 -0.022162326
-0.0076153837 0.013485274 -0.022860214
0.0076398416 0.013725321 -0.024239503
-0.0079999985 0.017361704 -0.022469595
0.0079999976 0.017308882 -0.022059564
-0.0079999976 0.022570908 -0.02296407
0.0080000013 0.022978391 -0.022667298
-0.0080000004 0.027394991 -0.022711558
0.0079999994 0.027840341 -0.022756794
-0.0079999985 0.032148596 -0.022810699
0.0079999948 0.032607455 -0.022427283
-0.0079999985 0.037546098 -0.022571044
0.0079999976 0.037487056 -0.023046827
-0.0080000004 0.042270053 -0.022575675
0.0080000004 0.0423299 -0.022633908
-0.0080000004 0.047521442 -0.022444712
0.0075859549 0.047045771 -0.023914227
-0.0079999976 0.052584041 -0.022302482
0.0079999967 0.05236252 -0.022350771
-0.0076097539 0.058092307 -0.023322316
0.0080000004 0.057171524 -0.02207768
-0.0079999994 0.059413489 -0.022683706
0.0079999994 0.060065039 -0.023063745
-0.0079999994 0.06726554 -0.022775704
0.0079999994 0.067328252 -0.02242459
-0.0079999976 0.072694585 -0.022397269
0.0079999994 0.072667703 -0.02283928
-0.0079999957 0.077539742 -0.022502303
0.0079999985 0.07811825 -0.022135396
-0.0079999967 0.082789123 -0.02269437
0.0079999994 0.082121596 -0.022423226
-0.0071553364 0.080421902 -0.024130939
0.0076423702 0.08628542 -0.023173057
-0.0074697924 0.085093707 -0.022901231
0.007652171 0.090403393 -0.022911284
-0.0071466374 0.09593384 -0.0225193
-0.0018408302 0.095999978 -0.022361215
0.0027172051 0.095999986 -0.022196835
0.0067042685 0.094006591 -0.023522405
-0.0067629283 -0.095899627 -0.017843707
-0.0017428544 -0.09260685 -0.017766379
0.0024226741 -0.095999986 -0.017712938
0.006534135 -0.095831141 -0.01734243
-0.0079999994 -0.09061759 -0.018471278
0.0079999985 -0.092709094 -0.017182818
-0.0079999976 -0.087493889 -0.017240299
0.0079999976 -0.087611429 -0.017566785
-0.0080000013 -0.082426012 -0.017356886
0.0076444414 -0.078864358 -0.018398497
-0.0075151529 -0.074520722 -0.018705484
0.0079999976 -0.077340484 -0.016951514
-0.0077908006 -0.073217817 -0.018534269
0.0079999976 -0.072465934 -0.017252849
-0.0079999994 -0.068209425 -0.017667834
0.0080000004 -0.067532018 -0.017191216
-0.0079999967 -0.06207085 -0.017028123
0.0079999929 -0.062646799 -0.017503714
-0.007664165 -0.056284636 -0.018310951
0.0076279049 -0.055555981 -0.018331109
-0.0079999967 -0.052478205 -0.017369756
0.0079999985 -0.052885152 -0.017589882
-0.0080000004 -0.044595703 -0.018074485
0.0079999967 -0.047749437 -0.018090546
-0.007833126 -0.038532883 -0.019196428
0.0079999976 -0.042437192 -0.017556101
-0.0080000013 -0.038118273 -0.01689649
0.0075545739 -0.036332641 -0.018731974
-0.0079999967 -0.032151349 -0.017184552
0.0080000004 -0.032175932 -0.017618211
-0.0079999976 -0.027488146 -0.017585702
0.0079999967 -0.027792744 -0.017242193
-0.0079999967 -0.02289289 -0.017404983
0.0079999994 -0.022567555 -0.017299717
-0.0079999976 -0.017684322 -0.017396204
0.0080000013 -0.017522465 -0.017858213
-0.007652171 -0.014566964 -0.017977396
0.007692304 -0.014211777 -0.01819234
-0.0079999967 -0.0076365881 -0.017470501
0.0073254993 -0.0061174235 -0.018821346
-0.0079999985 -0.002419167 -0.017193342
0.0079999957 -0.0026963428 -0.017495025
-0.0079999967 0.0024830045 -0.017216172
0.0079999985 0.0021038849 -0.017515615
-0.0076666633 0.0058014058 -0.017831255
0.0079999976 0.0076649366 -0.017513365
-0.0079999957 0.012228352 -0.017559165
0.0079999957 0.012606478 -0.017779306
-0.0079999985 0.017444765 -0.017647361
0.0079999976 0.017314298 -0.017705364
-0.0074838721 0.021844424 -0.018831059
0.0079999994 0.022088023 -0.017528581
-0.0079852538 0.027657839 -0.017795622
0.0080000013 0.026924403 -0.018570313
-0.0079999976 0.03274104 -0.017587926
0.0079999985 0.032633271 -0.017747091
-0.0080000004 0.037516762 -0.017311497
0.0077266446 0.039113518 -0.01735124
-0.0079999967 0.042585701 -0.017413402
0.0080000004 0.04228545 -0.017522063
-0.0080000004 0.047057867 -0.017257404
0.0079999976 0.047237903 -0.017747745
-0.0080000004 0.052731995 -0.017793136
0.0080000004 0.052444484 -0.017729523
-0.0079999985 0.0570907 -0.017428488
0.0076363608 0.057104222 -0.017938463
-0.0079999985 0.062230248 -0.0174389
0.0079999985 0.062897258 -0.016981257
-0.0079765217 0.061147429 -0.019124722
0.0079999957 0.067208543 -0.017562898
-0.0076697543 0.071274854 -0.017832974
0.0079999985 0.072334267 -0.01726662
-0.0079999976 0.077333748 -0.01788854
0.0079999967 0.07758677 -0.017480215
-0.0079813758 0.07864663 -0.018237773
0.0079999957 0.082574211 -0.018223042
-0.0079999976 0.087153591 -0.01768438
0.0079950429 0.085994869 -0.018385848
-0.0079999976 0.092493474 -0.01737459
0.0076516843 0.086749122 -0.018611133
-0.0069864471 0.09580566 -0.017246531
-0.0024589445 0.095999978 -0.017969718
0.0021047643 0.096000001 -0.017598638
0.0066127465 0.095937818 -0.017920623
-0.0068735089 -0.095843561 -0.012313876
-0.0026886396 -0.095999971 -0.012430979
0.0028187498 -0.095999986 -0.012789999
0.006992403 -0.094057918 -0.012922334
-0.0080000013 -0.092669465 -0.012788639
0.0079999985 -0.092552193 -0.012495958
-0.0079999967 -0.087305516 -0.012522122
0.0079999957 -0.087550275 -0.01258236
-0.0079999985 -0.082530409 -0.01278035
0.0079999976 -0.080701612 -0.012999933
-0.0079999976 -0.077542916 -0.012654642
0.0080000004 -0.077260837 -0.012630605
-0.0080000013 -0.072623491 -0.012232273
0.0079999967 -0.072596528 -0.012605127
-0.0080000013 -0.06734293 -0.012625293
0.0079999976 -0.067475185 -0.012328037
-0.0079999967 -0.062616348 -0.012532866
0.0079999985 -0.061010864 -0.012421301
-0.0079674441 -0.05806642 -0.012862276
0.0079999967 -0.057546038 -0.012459906
-0.0080000013 -0.052703813 -0.01262513
0.0079999994 -0.05249539 -0.012155709
-0.0079999985 -0.048361406 -0.013142636
0.007578948 -0.043300409 -0.013967597
-0.0074108238 -0.042493135 -0.013832694
0.0079999994 -0.042659372 -0.012224864
-0.0079999967 -0.036795236 -0.012549778
0.0075789471 -0.034147024 -0.012752211
-0.0079999976 -0.032188904 -0.012270368
0.0072727278 -0.031268202 -0.013796731
-0.0077192937 -0.026750814 -0.012908277
0.0079999985 -0.024860952 -0.013515624
-0.0079999957 -0.022604644 -0.013011568
0.0079999994 -0.02276117 -0.012461443
-0.0080000004 -0.017050898 -0.012695279
0.0079999985 -0.017239144 -0.012482976
-0.0076279044 -0.012843811 -0.012930783
0.0079999985 -0.012783507 -0.012577331
-0.0079999985 -0.0073380861 -0.01279535
0.0079999976 -0.0084056789 -0.012429088
-0.0079999985 -0.0027366446 -0.012077047
0.0079999957 -0.0026660087 -0.012068128
-0.0079812268 0.0041341246 -0.012897098
0.0079999994 0.0024311582 -0.012187304
-0.0076444424 0.0087697022 -0.012402634
0.0079999957 0.0079674749 -0.012392995
-0.0079999967 0.012549394 -0.012873431
0.0079999957 0.012548918 -0.012445531
-0.0079999957 0.017591704 -0.012378055
0.0079999967 0.017458299 -0.012665289
-0.0079999939 0.022129221 -0.012585832
0.0076190461 0.022798669 -0.014292663
-0.0078100716 0.027205946 -0.013253747
0.0078367451 0.028491002 -0.014116262
-0.0079999985 0.032530822 -0.012342432
0.0079999957 0.030707404 -0.013424249
-0.0079999994 0.037851471 -0.012596685
0.0080000013 0.037500039 -0.011942756
-0.0079999976 0.042393412 -0.012404254
0.0079999967 0.042510368 -0.012236491
-0.0079999976 0.046884838 -0.012206977
0.0072313203 0.04929712 -0.015134888
-0.0079999985 0.052317321 -0.012037651
0.0080000004 0.05233435 -0.012743552
-0.0079999967 0.057272781 -0.012507683
0.0079999985 0.057662647 -0.012638294
-0.0079999957 0.062527716 -0.012802022
0.0079999985 0.062770031 -0.01238296
-0.0079999994 0.067584477 -0.012475868
0.0079999967 0.067643844 -0.012516788
-0.0079999985 0.072936475 -0.012758176
0.0079999994 0.072469041 -0.012609152
-0.0075883577 0.076437451 -0.012803224
0.0080000004 0.077193327 -0.012270942
-0.0079999967 0.082802966 -0.012707125
0.0078435363 0.077722356 -0.01497902
-0.0080000004 0.087397613 -0.012934251
0.0080000013 0.087692544 -0.012701279
-0.0079999976 0.092922635 -0.012453657
0.0080000013 0.093206011 -0.012272011
-0.006389088 0.095944606 -0.012425851
-0.0023170589 0.094061449 -0.013042164
0.0025832742 0.095999978 -0.012293896
0.0068193264 0.09592171 -0.012449969
-0.0069724969 -0.095888913 -0.0076572364
-0.002548933 -0.095192306 -0.0091701746
0.0023946506 -0.095999978 -0.0074096108
0.0067323153 -0.095899172 -0.0073524853
-0.0080000004 -0.092618749 -0.0072869468
0.0079999985 -0.092224225 -0.0074407766
-0.0079999976 -0.087522775 -0.0075194295
0.00761062 -0.087941498 -0.0084408987
-0.0079999976 -0.082684673 -0.0073152082
0.0080000013 -0.083022848 -0.0075190649
-0.0079999967 -0.077301338 -0.0079058902
0.0079999976 -0.077383094 -0.0072715743
-0.0079999994 -0.072457969 -0.0073105614
0.0079999985 -0.072960205 -0.0072119609
-0.0079999967 -0.067488573 -0.0073986771
0.0075675668 -0.06852138 -0.0085156346
-0.0076425876 -0.061089706 -0.0087557044
0.0076734666 -0.060105506 -0.0083707524
-0.0079999994 -0.057936057 -0.0087184273
0.0079798084 -0.057533931 -0.0086649731
-0.0079999976 -0.052717309 -0.0075541176
0.0079999967 -0.052563787 -0.0075324029
-0.0079999957 -0.047617171 -0.0074216262
0.007989089 -0.047470972 -0.0080040591
-0.0079999994 -0.042536821 -0.0069631529
0.0079999976 -0.042461667 -0.0071214521
-0.0079999967 -0.03640382 -0.0077157244
0.0079999994 -0.037700076 -0.0078078783
-0.0079999957 -0.032597363 -0.0073059434
0.0079999976 -0.03357093 -0.0082381442
-0.0079999994 -0.027269034 -0.0072885822
0.0079999967 -0.027307061 -0.0075011235
-0.0075675678 -0.021354362 -0.0091519328
0.0079999976 -0.022181191 -0.0077124834
-0.0079999976 -0.01907436 -0.0089721801
0.0079999976 -0.017524529 -0.0075671244
-0.00776046 -0.010372816 -0.0085382313
0.0073803482 -0.015017937 -0.0098001193
-0.0079919286 -0.0077931988 -0.0080845114
0.0079999994 -0.0073275263 -0.0077825091
-0.0079999976 -0.0024808401 -0.007225865
0.0079999976 -0.0026531911 -0.0074214544
-0.0076279049 0.0038441094 -0.0089901658
0.0079999985 0.0022112138 -0.0079729734
-0.0079999967 0.0077119097 -0.0073433658
0.0079999967 0.0076941475 -0.0075571355
-0.0075151525 0.0096700378 -0.0082116835
0.0079999976 0.012446213 -0.007926723
-0.0079885693 0.018617567 -0.008640903
0.0080000004 0.017474525 -0.0072803153
-0.0079999948 0.022496201 -0.0072518154
0.0072380942 0.021858588 -0.0092179487
-0.0076521714 0.025871191 -0.0076130009
0.0079999967 0.027832482 -0.0073550222
-0.0079999967 0.032521334 -0.0077561243
0.0076444428 0.030758681 -0.0078265658
-0.0079999994 0.033707507 -0.0083315605
0.0079749301 0.035237923 -0.0097894249
-0.0079999967 0.042461853 -0.0077400953
0.0079999948 0.042443965 -0.0075150868
-0.0076608667 0.046208382 -0.0088026579
0.0079999967 0.047593884 -0.0075693144
-0.0079999994 0.052535594 -0.0079649966
0.0079999976 0.052330233 -0.0071213939
-0.0076862709 0.057548765 -0.0085319653
0.007673467 0.056751054 -0.0082690474
-0.0079999994 0.062664784 -0.0075262086
0.0079999976 0.062201649 -0.0075688926
-0.0079999976 0.067715801 -0.0074411095
0.0079999967 0.0672727 -0.0073767109
-0.0080000004 0.072472811 -0.007550803
0.0076444438 0.068679303 -0.0083220629
-0.0076279044 0.078282654 -0.008973334
0.0075151529 0.076866016 -0.0091136359
-0.0079999994 0.082593203 -0.0077988156
0.0079999985 0.082258768 -0.0073137865
-0.0079999985 0.087827362 -0.0076416135
0.0079999957 0.087442145 -0.0075573255
-0.0079999967 0.092304975 -0.0076758279
0.0076872371 0.092086419 -0.0086704446
-0.00706483 0.095783018 -0.0075452658
-0.0024164598 0.095999993 -0.0076697622
0.0026736942 0.096000031 -0.0075547602
0.0064335768 0.092792735 -0.0090027452
-0.0068659075 -0.095879979 -0.0020541183
-0.0027027002 -0.095999978 -0.002576533
0.0023657088 -0.096000038 -0.0023811576
0.0068667573 -0.095843554 -0.0021902055
-0.0079999985 -0.092969865 -0.0026775212
0.007589743 -0.092057288 -0.0035302094
-0.0079999948 -0.087527663 -0.0025820972
0.0080000013 -0.087272316 -0.0020459779
-0.0079916259 -0.081082799 -0.0032441949
0.0075495117 -0.079237983 -0.0037407782
-0.0079999957 -0.077423207 -0.0030136162
0.0080000013 -0.077872001 -0.0023580007
-0.0079999985 -0.072730035 -0.0019020163
0.0075999992 -0.070067294 -0.0033601818
-0.0080000004 -0.067856878 -0.0024056421
0.0080000004 -0.067397691 -0.0024165935
-0.0079999976 -0.062182903 -0.0023029011
0.0076602614 -0.06125509 -0.0032408491
-0.0079999994 -0.057188749 -0.002692515
0.0079999976 -0.057523642 -0.002393432
-0.0079999967 -0.052292988 -0.0025427716
0.0079999994 -0.052375484 -0.0019385738
-0.0079999985 -0.041411143 -0.0047970284
0.0079999985 -0.047431741 -0.0025944805
-0.0079999957 -0.042534906 -0.0024144927
0.0079999976 -0.042971138 -0.0023781245
-0.0080000013 -0.037237424 -0.0024766198
0.0079796957 -0.035097957 -0.0043600472
-0.0078266878 -0.029681878 -0.0062356815
0.0079999967 -0.032018062 -0.0024428389
-0.0079999957 -0.027535755 -0.0022468427
0.0079999994 -0.027969411 -0.0023086115
-0.0080000004 -0.022431238 -0.0026128646
0.0079999976 -0.02259616 -0.0026663577
-0.0079999976 -0.017298831 -0.0023347251
0.0079999967 -0.017367557 -0.0024608131
-0.0077013779 -0.013107832 -0.0041055591
0.0078358809 -0.010003868 -0.0046186671
-0.0079999985 -0.0076160077 -0.0021558073
0.007645674 -0.005282735 -0.0050376197
-0.0079999985 -0.0025148958 -0.002710131
0.0080000013 -0.0027422106 -0.0026628783
-0.0079999967 0.0028100726 -0.0025290803
0.007542857 0.00062993745 -0.0026871315
-0.0077544269 0.007456569 -0.0050889598
0.0076363608 0.0067865765 -0.0035862438
-0.0079999976 0.012457391 -0.002481984
0.0079999976 0.01248834 -0.0024418253
-0.0080000004 0.017816722 -0.0020776524
0.0079999967 0.017584788 -0.0024614057
-0.0077021332 0.023707954 -0.0036707225
0.0074756169 0.023966722 -0.0043385737
-0.0079999957 0.027921079 -0.0036082249
0.0079999976 0.027562497 -0.0026926757
-0.0079884566 0.030703101 -0.0039585778
0.0079999957 0.032712087 -0.0023193166
-0.0073247645 0.033057928 -0.0045465031
0.0076161134 0.03530746 -0.0054500201
-0.0079967845 0.037339799 -0.0043152226
0.0079999957 0.042429771 -0.0022615425
-0.0079999994 0.047560636 -0.0024179695
0.0080000013 0.047199637 -0.0018006248
-0.0079999985 0.052546024 -0.0025709337
0.0079999957 0.052279286 -0.0023737119
-0.0079999985 0.0572845 -0.0028101727
0.0079999994 0.057621635 -0.0024377876
-0.0076444424 0.060233463 -0.003421596
0.007989076 0.060139202 -0.0043632984
-0.0079999976 0.067843221 -0.0023395682
0.0079999985 0.067667484 -0.00243806
-0.0080000004 0.072497845 -0.0021898765
0.0080000013 0.072613329 -0.0024546562
-0.0076097543 0.072835796 -0.0053509721
0.0079999994 0.074859202 -0.0039213919
-0.0076363608 0.078994364 -0.0033666817
0.0074969544 0.07845059 -0.0046578934
-0.0080000004 0.08751747 -0.0022109214
0.0079999967 0.087386228 -0.0026062855
-0.0079999967 0.088209607 -0.0028639669
0.0076363632 0.090825118 -0.0041795541
-0.007275132 0.095824204 -0.0025292067
-0.0019720281 0.096000001 -0.0026164872
0.0022728851 0.095999978 -0.0022643234
0.0066881599 0.095968477 -0.0023134199
-0.0069135111 -0.095822446 0.0025328211
-0.0025098994 -0.093051866 0.0010444359
0.0023766898 -0.095999978 0.0020295477
0.0062959762 -0.08325699 -0.00085463969
-0.0071351361 -0.087103009 0.00067808403
0.0080000004 -0.092742786 0.002419502
-0.0079999985 -0.087414831 0.0025721954
0.0079999994 -0.087341823 0.0026714422
-0.0079999994 -0.081937015 0.0027650138
0.0079999985 -0.082797892 0.0028445353
-0.0076734666 -0.075943433 0.0023443601
0.0079999985 -0.077426702 0.0022704273
-0.0076097543 -0.069426805 0.0014389923
0.0079999976 -0.072621562 0.0027960604
-0.0080000013 -0.067451552 0.002924667
0.0080000004 -0.067988448 0.0023208852
-0.0079999994 -0.062682927 0.0026950829
0.0080000013 -0.058541823 0.0025565824
-0.0075390162 -0.054216497 0.0022279604
0.0076190457 -0.057924323 0.0014265296
-0.0079999976 -0.052703079 0.0019555436
0.0079999976 -0.052653614 0.002141346
-0.0080000004 -0.047045764 0.00085947459
0.0079999976 -0.047616933 0.0023526864
-0.0080000004 -0.042392623 0.0025565624
0.0079999976 -0.042212591 0.0024552273
-0.0080000004 -0.037344452 0.0024525768
0.0080000004 -0.035058018 0.0007776345
-0.0079999994 -0.034019772 0.0026954371
0.0076363618 -0.033820964 0.0013409882
-0.0080000004 -0.024547169 0.0023357798
0.0079999994 -0.02719944 0.0024018893
-0.007652171 -0.023763161 0.0027118947
0.0079999967 -0.023133479 0.001255289
