# .PCD v0.7 - Point Cloud Data file format
VERSION 0.7
FIELDS x y z
SIZE 4 4 4
TYPE F F F
COUNT 1 1 1
WIDTH 1296
HEIGHT 1
VIEWPOINT 0 0 0 1 0 0 0
POINTS 1296
DATA ascii
-0.062331818 -0.055000003 0.017562764
-0.054738782 -0.055000003 0.017841943
-0.048088681 -0.055000003 0.017716438
-0.042467803 -0.055000003 0.016831066
-0.039987717 -0.055000003 0.016477427
-0.034455329 -0.055000003 0.016987924
-0.027223995 -0.055000003 0.019616736
-0.024199724 -0.055000003 0.016310811
-0.018150803 -0.055000003 0.01930543
-0.0068800994 -0.027500007 0.010733007
-0.0063002873 -0.055000003 0.01835159
-0.063002124 -0.053749938 0.017659338
-0.054074574 -0.054999981 0.016483964
-0.052560095 -0.054999989 0.017837686
-0.043720603 -0.050471168 0.013861539
-0.042422138 -0.054999981 0.017447805
-0.03794181 -0.054999989 0.017719751
-0.029186059 -0.050925918 0.01426529
-0.02214404 -0.054647293 0.0109998
-0.022803571 -0.054999981 0.017143354
-0.017836647 -0.054999981 0.017474787
-0.012302003 -0.055000003 0.017161367
-0.0047379769 -0.05174803 0.015311149
-0.0023914662 -0.054999977 0.017347638
0.0020534932 -0.048242737 0.011887338
0.0074091349 -0.054999985 0.017764186
0.012607373 -0.054999985 0.017296849
0.016633952 -0.054999989 0.016543768
0.021856423 -0.052588481 0.015718307
0.028261352 -0.052810982 0.01520367
0.033304263 -0.054238778 0.015539759
0.037345983 -0.054999989 0.017888712
0.042224821 -0.054999992 0.016885569
0.04762096 -0.054999989 0.01711422
0.050107021 -0.051468402 0.014391663
0.052606437 -0.05231306 0.015029469
0.063152224 -0.05353035 0.017506581
-0.061538752 -0.043715119 0.015054951
0.061457522 -0.04721069 0.015406817
-0.06400001 -0.04199468 0.017810509
0.064000003 -0.042502582 0.017020712
-0.060235295 -0.037777785 0.015975755
0.063999981 -0.036203716 0.017191131
-0.063234694 -0.03302829 0.015376337
0.064000003 -0.032655325 0.017324453
-0.059878476 -0.027008399 0.016864724
0.064000003 -0.027598286 0.017411783
-0.06400001 -0.022725759 0.017426332
0.06400001 -0.022626786 0.017607003
-0.058261316 -0.019606778 0.015696881
0.064000003 -0.017298037 0.017891593
-0.061524693 -0.010866179 0.016126545
0.064000003 -0.012758371 0.017489808
-0.063999981 -0.0075021144 0.017309666
0.063438401 -0.0062530064 0.015260877
-0.060354657 -0.0047597345 0.016788481
0.059743639 -0.0038885146 0.015682016
-0.063513331 0.0042151217 0.015278963
0.064000003 0.0037996264 0.014259047
-0.063732304 0.0084608486 0.016497068
0.064000003 0.0072218883 0.0173326
-0.063768983 0.013542903 0.014667541
0.063999996 0.012882318 0.016150326
-0.06400001 0.017951092 0.014931316
0.06076549 0.016917899 0.01326348
-0.060000006 0.022772659 0.015836174
0.064000003 0.022744954 0.017182715
-0.061254192 0.027241241 0.015379256
0.06101935 0.02880702 0.016744984
-0.064000003 0.032171283 0.017256605
0.064000003 0.032629546 0.017731501
-0.06400001 0.037782777 0.017038861
0.06400001 0.037266485 0.01737868
-0.063999966 0.042435393 0.017659329
0.063999988 0.042123113 0.017379997
-0.06400001 0.045005657 0.0154107
0.060097478 0.04502479 0.016459145
-0.064000003 0.052708074 0.017507011
0.014250446 0.054999996 0.01753179
0.017831463 0.054999992 0.018946484
0.022884229 0.054999996 0.018395985
0.025697798 0.054999996 0.017464861
0.031387057 0.054999996 0.017339773
0.043920964 0.054999996 0.016161148
0.046308376 0.054999996 0.015746946
0.055431832 0.054999996 0.016317051
0.063996091 0.052773528 0.017588193
-0.062027596 0.055 0.017852055
-0.058382388 0.055 0.017340858
-0.052657738 0.052957781 0.016143857
-0.047844831 0.054999981 0.017581716
-0.042641882 0.054999985 0.017071273
-0.038667127 0.051833689 0.015995169
-0.032452516 0.054999981 0.01741787
-0.029339736 0.051907752 0.015891308
-0.019468602 0.052407153 0.015270634
-0.019026529 0.055 0.014685874
-0.0098563312 0.053044908 0.015115018
-0.007997104 0.054999981 0.017417464
-0.0024099217 0.054999985 0.017669734
0.0026470844 0.055 0.017165704
0.007399986 0.054999981 0.017111667
0.012002799 0.053830355 0.015123311
0.015413298 0.054999985 0.016192492
0.022639489 0.054999981 0.017261056
0.027607761 0.054999981 0.017448293
0.030196948 0.050416663 0.014545532
0.037647929 0.054999992 0.018075764
0.039940458 0.051857125 0.016695995
0.044574205 0.051333323 0.01687243
0.052765854 0.054999996 0.017829787
0.057189725 0.054999989 0.017458677
0.061642654 0.054999992 0.01779383
-0.061646231 -0.055000003 0.023869891
-0.056638718 -0.055000003 0.022117633
-0.050951429 -0.055000003 0.022085665
-0.046760343 -0.055000003 0.021702565
0.0098733157 -0.011055229 -0.007093871
-0.028754912 -0.055000003 0.021710031
-0.020439301 -0.055000003 0.021520935
-0.017507566 -0.055000003 0.023057401
-0.014179423 -0.055000003 0.022573635
-0.0096226316 -0.055000003 0.022980954
-0.062979504 -0.053620305 0.022367125
-0.053878538 -0.051563092 0.021259878
-0.052381646 -0.054999985 0.022741422
-0.047764715 -0.054999989 0.022707662
-0.042481899 -0.055 0.022257883
-0.037821043 -0.054717962 0.020056473
-0.033315282 -0.054999996 0.022073181
-0.026514634 -0.051927578 0.0192209
-0.020643979 -0.054999985 0.020737138
-0.015196814 -0.049487233 0.018095333
-0.0087717725 -0.05161716 0.021691792
-0.0073858644 -0.054999981 0.022598915
-0.002568936 -0.054999981 0.022564322
0.0047282595 -0.054397285 0.021540139
0.0076833479 -0.054999981 0.022337722
0.011661464 -0.052284084 0.018015845
0.015823765 -0.052139938 0.019869009
0.022697756 -0.054999977 0.022693964
0.027983366 -0.055 0.022199895
0.02920001 -0.05107142 0.020468278
0.037610207 -0.054999989 0.022252981
0.042629596 -0.054999992 0.022294058
0.045361359 -0.051764689 0.02183342
0.052045781 -0.054999981 0.022419438
0.052802678 -0.053081129 0.022140669
0.063348629 -0.05338335 0.022516333
-0.060729597 -0.047665548 0.020498233
0.059649933 -0.047349695 0.020482207
-0.061210301 -0.04044925 0.021214673
0.064000003 -0.042718492 0.022691201
-0.06400001 -0.037220072 0.022529986
0.064000003 -0.037627552 0.022726852
-0.063999988 -0.032526381 0.022400929
0.059896033 -0.029442746 0.020196309
-0.064000003 -0.027152902 0.022671906
0.063999996 -0.027576813 0.022573236
-0.060883522 -0.020264408 0.020975707
0.056966286 -0.018640863 0.016994014
-0.063999996 -0.017951023 0.022225227
0.06400001 -0.017142192 0.022353567
-0.06400001 -0.012592581 0.022272132
0.06400001 -0.012920634 0.023122415
-0.05872323 -0.0090539856 0.020865457
0.063292861 -0.0058906786 0.021338008
-0.06400001 -0.0025055129 0.022790795
0.062961176 -0.00088513165 0.02271889
-0.063999996 0.0010830179 0.020730793
0.064000003 0.0026165824 0.02264097
-0.064000003 0.0078848442 0.022730231
0.064000003 0.0075591877 0.022855528
-0.059802875 0.011511215 0.019892631
0.064000003 0.01267236 0.022623675
-0.06400001 0.017696137 0.022967868
0.06400001 0.017390747 0.022542853
-0.062476739 0.020540278 0.021543358
0.061016683 0.018010849 0.017193142
-0.057794146 0.024582194 0.020449117
0.06400001 0.027490746 0.022863558
-0.060444448 0.033235941 0.020966073
0.059733342 0.032795388 0.02240338
-0.06400001 0.037362155 0.022630248
0.064000003 0.037463129 0.021941341
-0.060667105 0.041284326 0.018448833
0.064000003 0.042351682 0.022229953
-0.0610906 0.046132252 0.020839173
0.064000003 0.047228832 0.022371618
-0.064000003 0.048705842 0.019680988
-0.0024545807 0.054999996 0.020947926
0.0092356149 0.054999996 0.021034613
0.014478689 0.054999996 0.022755766
0.016495146 0.054999996 0.023992022
0.021357004 0.055 0.022112023
0.040192783 0.054999996 0.021409344
0.052500006 0.054999996 0.023826156
0.05577901 0.018333334 -7.4973956e-05
0.064000003 0.052779291 0.023211934
-0.061986715 0.052611168 0.021774903
-0.056997187 0.055000003 0.022413189
-0.052393049 0.054999981 0.022882434
-0.04421398 0.050599992 0.02064188
-0.04292196 0.054999996 0.022537818
-0.033676028 0.053305015 0.019237893
-0.033763997 0.054569796 0.022717327
-0.0262907 0.052794024 0.019075563
-0.020318471 0.054903604 0.021308003
-0.017491192 0.054999992 0.022232411
-0.012551067 0.054999989 0.021917287
-0.0076264264 0.054999981 0.022913191
-0.0028577524 0.054999989 0.02193361
-0.0019566505 0.050416663 0.021316513
0.0035858785 0.054382049 0.018807076
0.0097150477 0.052402213 0.019514898
0.015895963 0.042307694 0.019067824
0.022890534 0.054999989 0.022292251
0.025203187 0.053292591 0.021479655
0.032280885 0.054999981 0.022456406
0.036915317 0.054999981 0.022292636
0.038956795 0.052799061 0.022094402
0.044531632 0.053349927 0.02127382
0.052826919 0.054594766 0.020520279
0.057403278 0.054999985 0.022694312
0.06191165 0.054999996 0.022264956
-0.056201637 -0.055000003 0.027877167
-0.05132414 -0.055000003 0.027153786
-0.045132883 -0.055000003 0.026784597
-0.041792419 -0.055000003 0.027406
-0.032423854 -0.055000003 0.027816895
-0.029549485 -0.055000003 0.028577581
-0.021758482 -0.055000003 0.029560601
-0.019534333 -0.055000003 0.02598111
-0.013031488 -0.055000003 0.027537882
-0.0097310618 -0.055000003 0.027902827
-0.061242204 -0.052528281 0.027246308
-0.057195697 -0.054999981 0.027281133
-0.047134478 -0.051666651 0.023991562
-0.04823494 -0.054278277 0.025092229
-0.042337302 -0.054999989 0.027617712
-0.037910309 -0.055 0.027124528
-0.031441286 -0.05107142 0.02710171
-0.02713358 -0.054999989 0.027904229
-0.019740798 -0.054999989 0.025141915
-0.017424935 -0.054999992 0.027670529
-0.012796108 -0.054999981 0.027572179
-0.0076266532 -0.054999985 0.027577525
-0.002418221 -0.054999989 0.027161773
0.0010276678 -0.051666651 0.026626857
0.0042917556 -0.051200666 0.024494816
0.01281185 -0.054999985 0.027448444
0.017671244 -0.054999989 0.027452623
0.022330435 -0.05218374 0.024830941
0.027298113 -0.054999981 0.027125118
0.032381508 -0.051562484 0.028152971
0.036366496 -0.051268 0.022562547
0.040867437 -0.051145766 0.024466392
0.046856057 -0.054999981 0.027683206
0.05179422 -0.052616671 0.022929542
0.052920613 -0.048529398 0.022348503
0.062117368 -0.053241137 0.02604655
-0.063999988 -0.047903512 0.027497577
0.06400001 -0.047634557 0.027860496
-0.064000003 -0.042799875 0.027688622
0.057450827 -0.031102983 0.020532215
-0.062738292 -0.035963751 0.025778543
0.054857813 -0.038952388 0.022085864
-0.059434634 -0.029019054 0.024768399
0.06172289 -0.030069137 0.02687099
-0.06400001 -0.027501639 0.028070498
0.061578561 -0.023643434 0.023467487
-0.064000003 -0.022231834 0.027403081
0.064000003 -0.022111356 0.027652299
-0.061746504 -0.013997175 0.026869407
0.061698247 -0.019018199 0.024656322
-0.059370551 -0.012594518 0.022595258
0.060390405 -0.011053139 0.025304209
-0.063999988 -0.0077263322 0.028280398
0.056975588 -0.0049845553 0.021518644
-0.061223574 -0.0011923983 0.024997758
0.06400001 -0.0019356316 0.027441487
-0.063999996 0.00210664 0.027390191
0.062707469 0.0040163109 0.025052808
-0.062198918 0.0087769851 0.026946364
0.061025254 0.0054951184 0.02477642
-0.064000003 0.012268771 0.027428094
0.064000003 0.012280736 0.027277717
-0.06400001 0.017588887 0.027679857
0.062623292 0.014461883 0.025655244
-0.06400001 0.02223647 0.027197801
0.059685104 0.019802246 0.026188741
-0.064000003 0.027643694 0.027399728
0.05938673 0.025861589 0.023046672
-0.052986827 0.029878531 0.020748058
0.061649118 0.030794809 0.025839459
-0.058564104 0.031152029 0.020761859
0.06400001 0.037221521 0.02801493
-0.062545508 0.038917236 0.023682673
0.06114123 0.040325113 0.022661204
-0.059586212 0.045414496 0.026631141
0.064000003 0.047608275 0.027189851
-0.064000003 0.052957553 0.026904333
0.0072483085 0.054999996 0.027774913
0.018665927 0.054999996 0.025928421
0.023583192 0.054999996 0.02775993
0.028364331 0.055 0.026561394
0.041870777 0.054999996 0.028969377
0.048346601 0.055 0.026628008
0.05255194 0.055 0.027177505
0.057810079 0.055 0.027490404
0.063601747 0.052261889 0.027176371
-0.061993074 0.054999989 0.027679494
-0.05351609 0.047903214 0.023522757
-0.052604456 0.054999981 0.027307171
-0.042538386 0.053846166 0.022916999
-0.042296 0.054999985 0.027341988
-0.037658066 0.054999985 0.027177492
-0.027127475 0.043705516 0.018651551
-0.024620561 0.050447803 0.026727064
-0.022247 0.054999989 0.027813163
-0.017379599 0.05293126 0.025308559
-0.012601975 0.054999989 0.027226614
-0.0076292902 0.054999981 0.027734119
-0.0016651573 0.04990888 0.025388654
0.0037484895 0.047676072 0.018880896
0.0035625622 0.051890958 0.026116677
0.011263891 0.052317053 0.027617564
0.015605432 0.054999981 0.025486959
0.024168745 0.052340973 0.025149193
0.025131801 0.053116921 0.026760388
0.0326849 0.054999985 0.027057474
0.037233818 0.055 0.026881676
0.041796517 0.055000003 0.023520617
0.047182523 0.054999996 0.028015319
0.052631482 0.054999981 0.027613822
0.055919603 0.051206883 0.025166873
0.061431628 0.053146075 0.024381444
-0.062125865 -0.055000003 0.032559238
-0.057361491 -0.055000003 0.030148298
-0.050205845 -0.055000003 0.03204786
-0.047293268 -0.055000003 0.033178966
-0.044477049 -0.055000003 0.034942359
-0.03888854 -0.055000003 0.034436017
-0.030870812 -0.055000003 0.031405658
-0.029139038 -0.055000003 0.034653883
-0.022857053 -0.055000003 0.031760231
-0.018025389 -0.055000003 0.033518925
-0.011337052 -0.055000003 0.032015614
-0.061686315 -0.051292956 0.031746011
-0.057663996 -0.054999989 0.032777462
-0.052808292 -0.055000003 0.032373879
-0.047674105 -0.054999989 0.032454148
-0.043230418 -0.049500003 0.032591488
-0.037413385 -0.054999989 0.0328326
-0.032580178 -0.054999989 0.032628372
-0.02753572 -0.054999989 0.032569904
-0.022001389 -0.054999981 0.032513354
-0.017170863 -0.054999992 0.032934912
-0.012458556 -0.054999992 0.032578468
-0.0073549626 -0.054999981 0.03236533
-0.00021928614 -0.054114971 0.031569485
0.0025621259 -0.054999992 0.032707248
0.0071795019 -0.054999981 0.03272732
0.01194961 -0.050136402 0.028392466
0.017523268 -0.054999981 0.032461334
0.022471461 -0.054999981 0.032385152
0.024903541 -0.054999989 0.029916296
0.033542208 -0.052495025 0.032093875
0.037436951 -0.054999981 0.032253221
0.039792083 -0.054999992 0.029237363
0.043787844 -0.046684224 0.026461745
0.052537352 -0.054999985 0.032740843
0.054396641 -0.049516894 0.029545831
0.059719991 -0.053821385 0.03075875
-0.063999996 -0.047548514 0.032677125
0.06024576 -0.048182022 0.03214233
-0.063999981 -0.042633194 0.032184802
0.064000003 -0.042739987 0.032712247
-0.059123859 -0.038026128 0.030417802
0.063999988 -0.037683077 0.032153528
-0.06400001 -0.031831443 0.032415532
0.060728062 -0.033365715 0.02995659
-0.064000003 -0.027535075 0.032214459
0.062587701 -0.027409915 0.029555397
-0.057313476 -0.01671326 0.027688351
0.064000003 -0.02234656 0.033169881
-0.063425176 -0.015939208 0.031287398
0.063443616 -0.018788625 0.031595897
-0.064000003 -0.012183178 0.032610539
0.05944901 -0.013877046 0.029896617
-0.064000003 -0.0077424627 0.032815829
0.06376189 -0.0087391809 0.029206999
-0.059254095 -0.00033832755 0.025787856
0.063999996 -0.0025639443 0.032222752
-0.063809827 0.00040614454 0.031797037
0.060201846 0.0011280535 0.028917443
-0.062989213 0.0090022627 0.032215685
0.061958749 0.0054301727 0.030310014
-0.06400001 0.012946756 0.033072192
0.059533149 0.010025463 0.030042572
-0.06400001 0.01743076 0.032775965
0.058551721 0.014975217 0.027858485
-0.06067539 0.020054905 0.028351363
0.063999996 0.02285474 0.032229725
-0.06400001 0.027495481 0.032217953
0.060123377 0.024717245 0.028779095
-0.055832755 0.030113645 0.026625264
0.06400001 0.032635186 0.032695256
-0.06253276 0.034250285 0.028968237
0.064000003 0.037335537 0.032279402
-0.06400001 0.042213053 0.033282533
0.064000003 0.042547092 0.032421134
-0.06400001 0.047658179 0.03274487
0.06400001 0.048024308 0.033031005
-0.060570862 0.050634973 0.032658923
0.012555718 0.054999996 0.033142902
0.017215027 0.054999992 0.032273494
0.027299348 0.054999996 0.032336671
0.032376055 0.054999996 0.031808302
0.037593924 0.054999996 0.032503515
0.042283505 0.054999996 0.032703724
0.047898952 0.054999996 0.032695353
0.054294504 0.054999996 0.03394451
0.058721364 0.054999996 0.033277981
0.062663935 0.052704539 0.031026704
-0.061794471 0.054999989 0.032583822
-0.056169394 0.054999989 0.029282112
-0.053040795 0.054999981 0.032354549
-0.045392457 0.054999977 0.032159925
-0.042455632 0.054999981 0.032269876
-0.036027897 0.049667776 0.027627168
-0.031617761 0.054999992 0.031462908
-0.027655393 0.054999981 0.029500498
-0.023005739 0.054999981 0.032110702
-0.017551858 0.054999977 0.032197881
-0.01406125 0.054740913 0.032235753
-0.0073548546 0.054999992 0.032501757
-0.0025250367 0.054999989 0.032874957
0.0026803508 0.054999981 0.032911006
0.0078926347 0.054949764 0.032142799
0.015254337 0.052814789 0.028865721
0.015201237 0.052788172 0.031638741
0.018605102 0.052157566 0.030244401
0.02747824 0.054999977 0.03247476
0.029950298 0.053641342 0.031163072
0.038050722 0.054999989 0.032199539
0.041622974 0.051759053 0.030048156
0.047869362 0.054999985 0.032092966
0.049657997 0.05476778 0.029696606
0.057320371 0.054999989 0.032557052
0.05839923 0.054887734 0.030719366
-0.06161093 -0.055000003 0.037194066
-0.056824751 -0.055000003 0.039281335
-0.052074045 -0.055000003 0.037455983
-0.046429642 -0.055000003 0.036307167
-0.032478839 0.047509611 -0.056000002
-0.0380551 -0.055000003 0.038693048
-0.031023238 -0.055000003 0.037770867
0.017541027 -0.018494576 0.027273981
-0.023360373 -0.055000003 0.036097135
-0.018025147 -0.055000003 0.036872875
-0.0079736933 -0.054999992 0.0054596271
-0.062621906 -0.052717175 0.035820767
-0.057543002 -0.054999985 0.037279416
-0.052493647 -0.054999981 0.037990779
-0.047120828 -0.053201791 0.034358967
-0.037617348 -0.055 0.03434008
-0.037591584 -0.054999992 0.037310947
-0.030076588 -0.050763071 0.033521
-0.027735485 -0.054999989 0.037710544
-0.023140205 -0.054999989 0.036618482
-0.018172594 -0.051631697 0.032939371
-0.012492975 -0.055000003 0.037639309
-0.0077658254 -0.054999989 0.037559818
-0.0013850457 -0.051206883 0.034762144
0.0019814372 -0.053457301 0.034149822
0.0072376761 -0.049642514 0.036509614
0.010066753 -0.048792381 0.033277135
0.015420968 -0.053086795 0.034218479
0.022679698 -0.054999981 0.037249215
0.023024904 -0.048653241 0.032053653
0.033970464 -0.054433174 0.03195338
0.034234483 -0.050050009 0.035694353
0.04176119 -0.051764689 0.036112674
0.048483331 -0.051884975 0.035171408
0.049943935 -0.051749658 0.035725776
0.057496645 -0.055 0.037132714
0.058323886 -0.051981743 0.035976835
-0.064000003 -0.047451973 0.037493162
0.06150575 -0.043480434 0.033797216
-0.064000003 -0.042361189 0.037553567
0.06400001 -0.042380046 0.037781682
-0.059570704 -0.032816995 0.029893633
0.06400001 -0.038016293 0.037902191
-0.064000003 -0.032739118 0.037213631
0.060127854 -0.030673563 0.035302773
-0.061813593 -0.026327953 0.034826629
0.060367297 -0.02750748 0.033357993
-0.064000003 -0.022320541 0.037966974
0.064000003 -0.022698961 0.037645198
-0.056979839 -0.01776275 0.035435818
0.064000003 -0.017987464 0.037766881
-0.061036367 -0.010167844 0.0339805
0.060175799 -0.012208181 0.03706719
-0.063999981 -0.0077249384 0.037233979
0.064000003 -0.0088539021 0.035277173
-0.062824704 -0.0026299946 0.035659108
0.060718473 -0.0038547802 0.037000105
-0.06249582 0.0016716863 0.03585485
0.058317821 0.0046271277 0.031976953
-0.060984008 0.0048713828 0.032603689
0.060403578 0.0073302346 0.034439012
-0.059272882 0.015382789 0.03592927
0.061711431 0.011928235 0.034946214
-0.062237788 0.014877621 0.034476675
0.06400001 0.017652642 0.036966525
-0.064000003 0.022426451 0.037635379
0.064000003 0.021295616 0.036093097
-0.060210649 0.026421744 0.036711849
0.06400001 0.028041953 0.037289865
-0.058159418 0.030361945 0.033942387
0.06400001 0.032593105 0.037540078
-0.06400001 0.037214171 0.037717469
0.061050456 0.034723043 0.037129421
-0.064000003 0.042259496 0.037662644
0.06307631 0.042015761 0.034289096
-0.061793219 0.047419515 0.035167485
0.064000003 0.047445085 0.037787225
-0.06400001 0.052412104 0.038102448
0.014358113 0.054999996 0.036880758
0.015202623 0.054999996 0.035234313
0.0217421 0.054999996 0.035412278
0.028303096 0.054999996 0.036597293
0.031114563 0.054999996 0.037321769
0.037440836 0.054999996 0.036913872
0.042528823 0.054999996 0.037323397
0.045767218 0.054999996 0.035440095
0.053487465 0.054999996 0.039650299
0.057418004 0.054999996 0.036802754
0.063894443 0.052757569 0.037617359
-0.05981376 0.050769225 0.034545213
-0.057462472 0.054999981 0.037144974
-0.048196949 0.051278677 0.030646579
-0.048091672 0.055 0.037088122
-0.040407281 0.052648254 0.035123907
-0.03830573 0.051451597 0.035535004
-0.031871758 0.054999981 0.03776712
-0.024833789 0.050925918 0.034218844
-0.021914398 0.054999981 0.037177414
-0.017320311 0.054999977 0.037536997
-0.014769552 0.054945588 0.034348663
-0.0068176659 0.054999977 0.037386525
-0.0022933867 0.054999989 0.038129035
0.002834325 0.054999992 0.037432991
0.0077298135 0.054999981 0.037674107
0.0098036667 0.051751319 0.035187587
0.017356368 0.054999981 0.037731454
0.022598187 0.054999981 0.037411664
0.027204445 0.054999996 0.037990782
0.033574011 0.053694997 0.034860015
0.03785954 0.054881722 0.036032733
0.041932672 0.051944423 0.035605446
0.047291208 0.055 0.03780023
0.052471928 0.054999985 0.03746397
0.057321697 0.054999985 0.037270516
0.062052764 0.054999989 0.037379343
-0.062258668 -0.055000003 0.041307703
-0.057719667 -0.055000003 0.044019423
-0.052582886 -0.055000003 0.042472508
-0.047948401 -0.055000003 0.043590181
-0.041844774 -0.055000003 0.042060241
-0.03845866 -0.055000003 0.042985477
-0.033225149 -0.055000003 0.041450605
-0.027916037 -0.055000003 0.041778229
-0.024680603 -0.055000003 0.040196177
-0.017975707 -0.055000003 0.041015357
-0.014256218 -0.055000003 0.044105656
-0.062910073 -0.053595413 0.042490747
-0.057377022 -0.054999992 0.04249955
-0.051038597 -0.05289017 0.040190365
-0.049433239 -0.046809625 0.037219677
-0.042251986 -0.054999992 0.042487785
-0.03156849 -0.050541207 0.039428942
-0.029709863 -0.049190696 0.038761932
-0.027644135 -0.054999989 0.04228764
-0.019944226 -0.044545967 0.033671509
-0.016252125 -0.051752269 0.038364254
-0.0066927457 -0.050501451 0.040556394
-0.0075281765 -0.054999989 0.042494562
-0.001706075 -0.054801565 0.042418782
0.0025007676 -0.054999989 0.042338248
0.0098782685 -0.050769869 0.038505476
0.014415099 -0.054775368 0.039740171
0.016225316 -0.051764689 0.042313911
0.022337513 -0.054999981 0.042453848
0.025152057 -0.050554045 0.038621895
0.032736182 -0.054999985 0.042025018
0.037635393 -0.051944423 0.040798694
0.042783748 -0.052011076 0.04002269
0.044989675 -0.054999977 0.042220406
0.049041595 -0.054942925 0.040727999
0.056566328 -0.052686471 0.036674429
0.058411747 -0.051956251 0.039479919
-0.06400001 -0.047495116 0.042616513
0.061707549 -0.044258248 0.0416927
-0.064000003 -0.042087372 0.042333245
0.06400001 -0.041948963 0.042726353
-0.06400001 -0.037692435 0.042856615
0.051954843 -0.03692393 0.037489686
-0.064000003 -0.032426115 0.042469878
0.061110623 -0.033409886 0.04006812
-0.06400001 -0.027364034 0.042538024
0.06012122 -0.027418381 0.041188013
-0.061821822 -0.022870256 0.041163921
0.06400001 -0.023069344 0.042296451
-0.064000003 -0.017115451 0.041260242
0.064000003 -0.01759533 0.041994356
-0.059982747 -0.014031652 0.041909553
0.063123435 -0.014718508 0.040226795
-0.060178373 -0.0074344338 0.037531011
0.057067193 -0.010363642 0.041251086
-0.06362734 -0.00073977042 0.038988892
0.064000003 -0.0021877484 0.042957399
-0.06400001 0.0028816205 0.042100057
0.060656872 0.0032209079 0.0385486
-0.064000003 0.0080998903 0.042798623
0.05951583 0.0050496799 0.036053021
-0.063999996 0.012558879 0.042535868
0.06342724 0.010710521 0.041423861
-0.063999996 0.017107707 0.042542771
0.06400001 0.01759294 0.042315461
-0.062074754 0.018983956 0.040643103
0.06400001 0.02268276 0.040274668
-0.064000003 0.027097791 0.04259083
0.061213139 0.025815655 0.039764352
-0.056360926 0.030934375 0.04035284
0.063999988 0.032568883 0.042158008
-0.062592246 0.037021521 0.03881754
0.059586212 0.037292615 0.039589845
-0.061372254 0.039368004 0.041221421
0.059870973 0.042347204 0.040437087
-0.059102125 0.044897981 0.040002517
0.063999988 0.046118155 0.041274294
-0.06344308 0.047174603 0.038109805
0.0095312539 0.054999996 0.042812888
0.011566523 0.054999996 0.043128539
0.019805439 0.054999996 0.042981565
0.024113696 0.054999996 0.040344521
0.029423878 0.054999996 0.042335149
0.033119593 0.054999996 0.041470684
0.037903279 0.054999996 0.042905353
0.0430419 0.054999996 0.041435137
0.046855584 0.054999996 0.042703129
0.053022396 0.055 0.041268077
0.05856172 0.054999996 0.042923905
0.059870973 0.050984941 0.040670127
-0.057931524 0.047133584 0.033893567
-0.04915864 0.049168646 0.037563283
-0.049085412 0.054999981 0.039924353
-0.04437675 0.05218523 0.041737832
-0.04034213 0.054999992 0.042267375
-0.033475824 0.054096036 0.04087422
-0.034266166 0.053375326 0.041904368
-0.027377604 0.054999981 0.042458609
-0.020686217 0.052105241 0.040612638
-0.017441452 0.054999981 0.042562373
-0.014542294 0.053224768 0.041588511
-0.0075447415 0.054999977 0.042331971
-0.0044863033 0.049410891 0.037672319
0.00053568557 0.053645533 0.039864596
0.0057508885 0.051451597 0.041512642
0.013079325 0.052500635 0.039708912
0.017479714 0.055000003 0.04255385
0.020184066 0.054999989 0.040329363
0.025214365 0.050416663 0.041622132
0.030078663 0.048358925 0.036942251
0.037319496 0.054999981 0.042924251
0.037752859 0.054904118 0.039417915
0.04790077 0.054999996 0.042650457
0.050078206 0.054999989 0.040986665
0.057754349 0.052729532 0.041908741
0.061944723 0.055 0.041977223
-0.062419921 -0.055000003 0.047725003
-0.056238461 -0.055000003 0.046193637
-0.05266444 -0.055000003 0.047128782
-0.046406463 -0.055000003 0.048704773
-0.04156813 -0.055000003 0.049935602
-0.035445273 -0.055000003 0.045609951
-0.032988384 -0.055000003 0.048498206
-0.026733039 -0.055000003 0.047045983
-0.024859268 -0.055000003 0.045501385
-0.018137129 -0.055000003 0.046541989
-0.061289832 -0.053542625 0.045472279
-0.057656903 -0.054999985 0.047401469
-0.052286662 -0.054999989 0.047257908
-0.047381088 -0.054999981 0.047132559
-0.039061494 -0.051974665 0.042444345
-0.036235567 -0.051666651 0.045272823
-0.032758828 -0.054999989 0.047910299
-0.026994482 -0.054999977 0.047334295
-0.02241338 -0.054999981 0.043229118
-0.020386405 -0.054197356 0.043010611
-0.012351028 -0.054999981 0.047226023
-0.0058685956 -0.054712035 0.044200409
-0.001775034 -0.054999992 0.04750061
0.0018451674 -0.054999985 0.047516502
0.005545822 -0.047267806 0.044404175
0.012300448 -0.054999989 0.04770004
0.018172337 -0.051118951 0.045101024
0.022907639 -0.048867807 0.043280955
0.026431471 -0.050599992 0.045055598
0.032395817 -0.054999981 0.047471866
0.037497178 -0.054999989 0.047536552
0.040292453 -0.050146524 0.040740315
0.047628321 -0.054999989 0.047627036
0.047929972 -0.05159381 0.043370284
0.057051677 -0.054999989 0.047475792
0.062047102 -0.053432506 0.045425504
-0.060444441 -0.045242395 0.047176499
0.062146865 -0.037931286 0.04202811
-0.064000003 -0.042236213 0.047630526
0.062137082 -0.04309164 0.046119552
-0.059479017 -0.037271846 0.046842895
0.064000003 -0.037563216 0.04763275
-0.057671249 -0.029156253 0.038317055
0.06400001 -0.032076262 0.047613777
-0.063999981 -0.02623992 0.045220349
0.063993201 -0.024597857 0.043832805
-0.064000003 -0.02065648 0.046509329
0.063393094 -0.023238819 0.045714114
-0.059491653 -0.018725302 0.044340219
0.060860801 -0.018500201 0.04694543
-0.063999988 -0.0119092 0.044993486
0.056616731 -0.01477047 0.039336335
-0.059377067 -0.0072763991 0.043272793
0.06400001 -0.0076363184 0.047889806
-0.052005675 -0.0034696811 0.041049555
0.06400001 0.00013648669 0.046337292
-0.063999981 0.0021450922 0.046148989
0.062311649 0.00056237716 0.04595238
-0.061208103 0.0041319854 0.042978443
0.05839251 0.0071372548 0.046361476
-0.055466998 0.00913209 0.037964076
0.062378768 0.014341506 0.046937089
-0.062408168 0.014642477 0.046639506
0.060202464 0.018809076 0.044878218
-0.063999988 0.022315098 0.047713935
0.06400001 0.021959027 0.047843713
-0.06400001 0.027280187 0.04735107
0.057661474 0.026061367 0.042407654
-0.061881475 0.032049745 0.044666111
0.063901626 0.029911516 0.045313098
-0.064000003 0.037673645 0.047774713
0.064000003 0.037281372 0.046784721
-0.060062714 0.041392781 0.041747157
0.06400001 0.042795684 0.047040913
-0.063821413 0.044976793 0.044808652
0.064000003 0.047943287 0.047753207
-0.060660578 0.050177805 0.043920409
0.018146839 0.054999996 0.046402264
0.024884265 0.054999996 0.047779843
0.036918148 0.055 0.046542481
0.042629153 0.054999996 0.045815412
0.047159169 0.054999996 0.047797963
0.053063035 0.054999996 0.048474632
0.056047674 0.054999996 0.048995771
0.063888811 0.051252678 0.046681937
-0.062178627 0.054999985 0.047929358
-0.053453386 0.052441847 0.046958297
-0.052155867 0.054999989 0.047909606
-0.045413755 0.047904797 0.040183481
-0.04089259 0.051660486 0.045877237
-0.037387844 0.055 0.047771927
-0.031021923 0.04770191 0.042821422
-0.027133379 0.054999989 0.047507238
-0.022609167 0.050599992 0.045010082
-0.018074935 0.051451597 0.045746982
-0.010606738 0.045802951 0.043883674
-0.0068787225 0.052031703 0.043498147
-0.0024767132 0.054999981 0.047330655
0.0020900751 0.050416663 0.046722263
0.007966971 0.054787274 0.044460993
0.012458771 0.052358359 0.045469206
0.017322104 0.054999996 0.04760449
0.022786748 0.055 0.047957476
0.027551603 0.053295277 0.04337807
0.032254651 0.054999985 0.047332846
0.037231106 0.054999996 0.047186252
0.03615069 0.048595488 0.0438185
0.048012353 0.054999985 0.047468055
0.052621234 0.054999989 0.047599219
0.057819668 0.054999981 0.044558089
0.062237531 0.054999992 0.047789432
-0.057763278 -0.055000003 0.052523434
-0.052265443 -0.055000003 0.053758521
-0.04792054 -0.055000003 0.053018369
-0.042931423 -0.055000003 0.053446501
-0.039265215 -0.055000003 0.051204041
-0.030023223 -0.055000003 0.051302485
-0.026048109 -0.055000003 0.05132309
-0.022160331 -0.055000003 0.053462043
-0.014699834 -0.055000003 0.052097615
-0.0097895488 -0.055000003 0.051430643
-0.063268021 -0.053331163 0.052505691
-0.054970637 -0.051500373 0.047988504
-0.052659165 -0.051451597 0.050500482
-0.047153521 -0.055 0.052084073
-0.042514402 -0.055000007 0.05230647
-0.036445335 -0.052366588 0.05080292
-0.03248027 -0.054999981 0.052285314
-0.027306112 -0.054999989 0.05254548
-0.019790905 -0.053150807 0.046409164
-0.01427334 -0.048714269 0.047303267
-0.011340414 -0.051121775 0.049254563
-0.0089376708 -0.054475155 0.04912639
-0.0028131104 -0.055 0.052295681
0.0039495649 -0.054999985 0.050420932
0.0052535189 -0.054386884 0.051776156
0.012752995 -0.054999981 0.052154239
0.015940337 -0.051801626 0.05137562
0.022296956 -0.054999977 0.052371129
0.021036912 -0.049392421 0.045841757
0.032216851 -0.054999989 0.052359294
0.036554456 -0.050599992 0.05125526
0.042138167 -0.054999985 0.052643564
0.047837891 -0.054999985 0.052080296
0.052344464 -0.054999981 0.050306778
0.05554552 -0.054621078 0.049000647
0.060962856 -0.052565254 0.050632123
-0.062440574 -0.047197126 0.049348049
0.057505146 -0.045424949 0.049674794
-0.063355856 -0.039612394 0.051025715
0.060642391 -0.04005624 0.052023727
-0.063994065 -0.033547394 0.0487305
0.061844196 -0.034946483 0.049801871
-0.06400001 -0.032449659 0.052446604
0.060420163 -0.03278847 0.048921492
-0.061896548 -0.024260998 0.048951562
0.060701001 -0.028773887 0.051909849
-0.064000003 -0.02280614 0.052440215
0.061441623 -0.020811701 0.052383367
-0.063658044 -0.015766092 0.047252476
0.064000003 -0.017891487 0.052691907
-0.059317842 -0.0072375117 0.047650661
0.063999973 -0.012299319 0.052556396
-0.063866101 -0.0075412807 0.052437991
0.064000003 -0.0076199826 0.052495874
-0.064000003 -0.0023456325 0.052513301
0.063981034 -0.004008322 0.050281879
-0.062000304 0.004241142 0.045516182
0.060744088 0.0045450367 0.049816702
-0.056727618 0.010302402 0.04889084
0.064000003 0.0081000216 0.051793378
-0.061026555 0.013771912 0.048211236
0.06400001 0.012680464 0.052381177
-0.063084371 0.018825727 0.049083337
0.063139208 0.017955301 0.048937514
-0.06400001 0.022370899 0.052562248
0.063470587 0.023980252 0.050916713
-0.06400001 0.027350163 0.052276634
0.062096372 0.026983181 0.045655631
-0.064000003 0.032248974 0.050869633
0.06400001 0.032285053 0.052258916
-0.06400001 0.037657313 0.052528087
0.060684789 0.03803996 0.049987659
-0.06400001 0.042430911 0.051885225
0.059658125 0.04009565 0.047429193
-0.058484588 0.045110747 0.048419341
0.063999988 0.047885966 0.052415174
-0.06400001 0.052263249 0.052358907
0.0088603683 0.054999996 0.050571781
0.013190605 0.055 0.053368948
0.020639218 0.033707328 -0.00081885792
0.031626176 0.055 0.051384538
0.039592974 0.054999996 0.053043768
0.042434704 0.054999996 0.051816031
0.046290763 0.054999996 0.053051982
0.053231537 0.054999996 0.053553663
0.059393235 0.054999996 0.05157347
0.062083676 0.052849796 0.048749637
-0.058482818 0.054967273 0.048684344
-0.05669507 0.051451597 0.050429538
-0.052535117 0.054999989 0.05235526
-0.044280116 0.054757372 0.04860888
-0.041549545 0.05107142 0.048914198
-0.034703054 0.053398211 0.050385918
-0.027890569 0.05498625 0.049726311
-0.02731185 0.054999989 0.052226797
-0.0245062 0.053982988 0.050590299
-0.01739696 0.052607983 0.049731631
-0.0095577193 0.053877518 0.05180316
-0.0074233194 0.052543547 0.047853395
-0.0025839908 0.054999985 0.052456856
0.0014723141 0.051206883 0.052471124
0.0072261021 0.054999985 0.052314252
0.0097740609 0.054999989 0.051310409
0.01308028 0.048156686 0.048055425
0.018410031 0.052755445 0.046875145
0.027433822 0.055000003 0.052785177
0.028941862 0.051501911 0.048484012
0.036703009 0.051986966 0.050860729
0.042646706 0.055000003 0.052459925
0.047590312 0.054999992 0.052412588
0.052640963 0.05448604 0.052036673
0.055431742 0.054999985 0.049098819
0.062567241 0.054999989 0.05204669
-0.057407528 -0.055000003 0.055588569
-0.034622025 -0.055000003 0.055161454
-0.06232211 -0.052898224 0.055873729
-0.057606943 -0.053230327 0.055794876
-0.049012341 -0.050978724 0.052730776
-0.047440376 -0.053153265 0.055946026
-0.04272002 -0.052913535 0.055929501
-0.035696231 -0.049969375 0.052265946
-0.030589763 -0.050496396 0.051983375
-0.027973354 -0.052836269 0.055948693
-0.021908877 -0.049501073 0.055719078
-0.017472019 -0.052563142 0.055906806
-0.012233619 -0.05316389 0.055952113
-0.0064351461 -0.047800675 0.052718043
-0.0024081264 -0.053157035 0.055870272
0.0025725651 -0.053356644 0.055950403
0.0079829087 -0.053101886 0.055842806
0.013238547 -0.052912753 0.055344928
0.017945265 -0.053144161 0.055940013
0.023284938 -0.052187938 0.055762723
0.027287502 -0.053531509 0.055762578
0.030894434 -0.052088957 0.053259574
0.036134444 -0.053376094 0.054491643
0.03986495 -0.049902428 0.054903712
0.047685537 -0.052792057 0.055916499
0.052492857 -0.052938223 0.055927902
0.05762855 -0.052993987 0.05589721
0.062492508 -0.052638799 0.055783261
-0.057683058 -0.044442598 0.051336594
-0.054529712 -0.047346182 0.053804815
-0.05182606 -0.047889471 0.056000002
-0.047327209 -0.047757287 0.055999998
-0.040208798 -0.045454785 0.053637531
-0.03506612 -0.045265742 0.053856973
-0.029933332 -0.046304919 0.054702263
-0.025586052 -0.047746655 0.053268291
-0.019921204 -0.048033766 0.05385644
-0.017475404 -0.04686407 0.0528
-0.011103146 -0.043149795 0.052027065
-0.008464057 -0.045675337 0.054317564
-0.00013436466 -0.042965561 0.053901952
0.0023487913 -0.047281489 0.056000002
0.0050722794 -0.044663034 0.053850859
0.011313119 -0.04331914 0.050572556
0.017428502 -0.044856582 0.055038299
0.022653898 -0.047016066 0.056000002
0.026843732 -0.047290448 0.056000002
0.032199126 -0.047726508 0.055999998
0.038062375 -0.043995969 0.053292401
0.039831642 -0.041826293 0.05096218
0.048083361 -0.048243936 0.053955659
0.050820548 -0.045333751 0.055004545
0.05762032 -0.047206502 0.056000002
0.058514461 -0.041432988 0.055429548
-0.058099046 -0.04289474 0.052965827
-0.057220798 -0.042756855 0.055999998
-0.049007811 -0.039638344 0.052273411
-0.047407292 -0.042625934 0.055999998
-0.039506614 -0.038769521 0.051566806
-0.034945082 -0.042134348 0.052000001
-0.026939819 -0.036644928 0.050417013
-0.030042805 -0.037920523 0.053449612
-0.021303462 -0.043286312 0.052518435
-0.018183779 -0.040358189 0.051050939
-0.012683589 -0.042466503 0.056000002
-0.0082347617 -0.042794663 0.05508592
-0.0029992892 -0.042230967 0.056000002
0.0039612111 -0.042598005 0.053467818
0.0070431503 -0.042586304 0.056000002
0.015672635 -0.039506517 0.052847125
0.013008043 -0.039314076 0.049602348
0.019164657 -0.039761562 0.055013783
0.023897627 -0.039195385 0.053915713
0.032670986 -0.042643726 0.056000002
0.036967538 -0.040358596 0.051519997
0.042580798 -0.043209527 0.056000002
0.048080005 -0.042252343 0.056000002
0.051370367 -0.03850117 0.050199095
0.054079138 -0.039912138 0.053602442
0.058701992 -0.039720114 0.054118991
-0.062479008 -0.038039599 0.055897217
-0.057314035 -0.037454337 0.056000002
-0.045398671 -0.032460563 0.045276202
-0.043041594 -0.032630228 0.053625837
-0.039549641 -0.038127691 0.053312544
-0.037799545 -0.03698064 0.055999998
-0.028880261 -0.037703115 0.055980328
-0.027119705 -0.037956513 0.055213068
-0.02220303 -0.037802987 0.055999998
-0.017304851 -0.037391532 0.055999998
-0.013868335 -0.034661796 0.051589105
-0.0080986246 -0.037458304 0.053052634
-0.003791091 -0.030517559 0.051620349
0.00050885143 -0.034310594 0.055738598
0.006229437 -0.038076121 0.05553969
0.011830865 -0.034028403 0.049977366
0.018901471 -0.037625935 0.053259689
0.02289582 -0.034773856 0.055578198
0.028152786 -0.034576591 0.054713842
0.032101981 -0.037740614 0.056000002
0.037478007 -0.037408479 0.056000002
0.042739138 -0.038031489 0.055999998
0.047791321 -0.037836969 0.055999998
0.052652579 -0.034375139 0.0544268
0.05437804 -0.03716404 0.0528
0.062501468 -0.037512165 0.055897769
-0.062571488 -0.032254726 0.055891573
-0.056779388 -0.033500422 0.055016227
-0.052155271 -0.033028774 0.055999998
-0.043637861 -0.032867495 0.052619278
-0.038039282 -0.027567886 0.050587516
-0.037350718 -0.032551605 0.056000002
-0.032382499 -0.032601275 0.055999998
-0.025723251 -0.030279048 0.050040703
-0.022858627 -0.030255029 0.050932795
-0.017041476 -0.032695554 0.055999998
-0.012386376 -0.033463158 0.052358836
-0.0087006241 -0.033182632 0.0533862
-0.0025298798 -0.032103881 0.056000002
0.002584076 -0.032310318 0.056000002
0.0049432074 -0.034000576 0.0529426
0.015037522 -0.029394191 0.048885174
0.017953943 -0.032061882 0.052266669
0.024102312 -0.03333075 0.052626092
0.02729545 -0.032911923 0.055999998
0.032363355 -0.032426346 0.055999998
0.033073846 -0.032728098 0.051316712
0.038629118 -0.02899012 0.052537862
0.044651553 -0.033446029 0.053386103
0.051879264 -0.030349458 0.053124946
0.054890145 -0.029946106 0.0531835
0.059389938 -0.029757068 0.05229909
-0.057809964 -0.021472983 0.051622275
-0.055552181 -0.025251666 0.055468906
-0.049141459 -0.024646414 0.05213429
-0.04366193 -0.029218063 0.053068649
-0.04274378 -0.025991978 0.052499998
-0.038073752 -0.025784632 0.054775584
-0.032581508 -0.027248291 0.055999998
-0.028048893 -0.02724324 0.055999998
-0.022618983 -0.026939142 0.056000002
-0.015119502 -0.027381632 0.051089246
-0.011812059 -0.019045683 0.047447536
-0.0039077601 -0.025439002 0.046675261
-0.0041973293 -0.026618261 0.054966629
0.0016623592 -0.023443911 0.052117191
0.0088627189 -0.026512276 0.050959293
0.012559186 -0.027027087 0.055999998
0.018002881 -0.028412901 0.05332043
0.02207857 -0.027881168 0.055999998
0.018379234 -0.028313408 0.047143366
0.033294171 -0.027130002 0.051692311
0.03321192 -0.025023062 0.052857235
0.042769089 -0.028598797 0.051753636
0.047526311 -0.027520778 0.055999998
0.0494687 -0.026506649 0.054095823
0.057674613 -0.027750708 0.054669369
0.062630296 -0.027953811 0.055823825
-0.058225311 -0.020205801 0.054934602
-0.057669032 -0.022627527 0.056000002
-0.043358006 -0.020224597 0.051867321
-0.04772523 -0.022732118 0.056000002
-0.039260924 -0.019014176 0.051649228
-0.037375446 -0.022605315 0.055999998
-0.03248813 -0.022877946 0.055999998
-0.027228434 -0.022193665 0.056000002
-0.019621015 -0.020867307 0.054621398
-0.017434431 -0.022796892 0.055999998
-0.010829564 -0.022397969 0.054871865
-0.0063293455 -0.022266945 0.047703702
-0.0022335513 -0.024482083 0.049434587
0.0014265305 -0.023928698 0.052660562
0.0076597645 -0.022524795 0.056000002
0.012458614 -0.022509584 0.055999998
0.015973134 -0.023452159 0.055506129
0.018873645 -0.023261461 0.055314559
0.026021961 -0.021705927 0.053333335
0.032509673 -0.022367807 0.056000002
0.037600335 -0.022801302 0.056000002
0.042291705 -0.019691136 0.05239334
0.039609089 -0.025712105 0.045933254
0.051421199 -0.018651722 0.054009188
0.057563815 -0.022766393 0.056000002
0.062739067 -0.022402439 0.055861384
-0.05981338 -0.018463913 0.052489277
-0.05429488 -0.015016271 0.055105105
-0.052429114 -0.017182276 0.055999998
-0.045793522 -0.018473627 0.049303975
-0.042789657 -0.017262826 0.056000002
-0.037447426 -0.017843558 0.055999998
-0.030054139 -0.0174032 0.05428927
-0.02240004 -0.017707609 0.052442424
-0.022268593 -0.014695078 0.05185185
-0.01578854 -0.014164475 0.050205261
-0.012476893 -0.017633161 0.055999998
-0.0095868772 -0.016620478 0.055355858
0.00038542776 -0.017750045 0.052050784
0.0020436659 -0.017448757 0.052499998
0.0091628749 -0.017130001 0.054237444
0.010488738 -0.017363515 0.053548526
0.015393265 -0.01832575 0.054807425
0.022762783 -0.017760685 0.055999998
0.027399698 -0.017753197 0.056000002
0.033336554 -0.016616959 0.055675883
0.037230074 -0.018331409 0.052835967
0.042357001 -0.01782204 0.055999998
0.047833543 -0.017154459 0.055999998
0.048953976 -0.016387971 0.053328089
0.053123072 -0.017398605 0.050123174
0.062543772 -0.017616432 0.055896375
-0.062726937 -0.012392788 0.055182472
-0.055344466 -0.01524058 0.053994846
-0.052211393 -0.012280624 0.055999998
-0.043403633 -0.012960017 0.051164452
-0.042537037 -0.012304508 0.055999998
-0.037682116 -0.012807471 0.056000002
-0.029024677 -0.012809954 0.054838128
-0.027431827 -0.012684138 0.055999998
-0.023693418 -0.013981932 0.054634545
-0.016517881 -0.010945591 0.053052634
-0.012973921 -0.013327931 0.055657469
-0.0063617406 -0.013564576 0.053995825
-0.0016654289 -0.0089382203 0.051448863
-0.00054984196 -0.012756146 0.054328263
0.007351215 -0.013920092 0.055356428
0.011554846 -0.013228471 0.054033555
0.014912453 -0.013381825 0.055968665
0.022383409 -0.011676138 0.05339535
0.027648244 -0.010583566 0.054315537
0.02933624 -0.0098855589 0.050715473
0.035233527 -0.010575473 0.051842477
0.041617639 -0.012800668 0.049002353
0.048365995 -0.0099142026 0.053967301
0.048760317 -0.013818402 0.054106217
0.054723125 -0.013793147 0.054972291
0.061548542 -0.013151333 0.055736288
-0.054678034 -0.0082585178 0.051111083
-0.057478469 -0.0075202957 0.055999998
-0.052038983 -0.0094237449 0.04900723
-0.047866032 -0.0080762682 0.055178117
-0.042211585 -0.0070912223 0.055999998
-0.037613351 -0.0079961475 0.056000002
-0.033812646 -0.0058789854 0.040881358
-0.024690663 -0.0081229825 0.055881478
-0.020140974 -0.0082357451 0.052266669
-0.014039709 -0.0059686326 0.054827888
-0.011003441 -0.005340158 0.055029392
-0.0078305146 -0.0090231057 0.050129857
0.00029880213 -0.0057661729 0.053410813
0.0002072209 -0.005659217 0.054916244
0.0074774437 -0.0075334599 0.056000002
0.012581059 -0.0087663298 0.055971712
0.017217742 -0.0075435075 0.055999998
0.01721439 -0.0079594478 0.048376318
0.023644002 -0.0061574993 0.054789547
0.02958948 -0.0093399631 0.05488804
0.035978459 -0.0079165464 0.05185185
0.043008924 -0.0061746612 0.053484745
0.047492057 -0.0075449548 0.055999998
0.052313231 -0.0075154128 0.056000002
0.054790944 -0.0051652659 0.052018389
0.059765406 -0.0082280058 0.055925541
-0.06220977 -0.0028691995 0.056000002
-0.057447705 -0.0022580961 0.055999998
-0.050385173 -0.00087344227 0.055646092
-0.04600773 -0.00082962657 0.055273499
-0.042656057 -0.0022114413 0.055999998
-0.037883602 -0.0024888648 0.054270599
-0.02989194 -0.00095048291 0.055673085
-0.027818363 -0.0026075465 0.056000002
-0.022517931 -0.00250043 0.056000002
-0.016856207 -0.004344984 0.048067018
-0.01219574 -0.00048852764 0.055401057
-0.0055648647 -0.0050194175 0.055870906
-0.0050350111 -0.0054760929 0.0535645
0.0047527351 -0.0025405483 0.055521779
0.0086233178 -0.00409343 0.053324211
0.011865287 -0.00069258054 0.055796333
0.017575834 -0.0026295073 0.056000002
0.022465253 -0.0024622402 0.055999998
0.027936272 -0.0038766549 0.049634039
0.03233311 -0.0024553239 0.055999998
0.03780891 -0.002604258 0.056000002
0.040645167 -0.0041897492 0.054058902
0.042437151 -0.002470331 0.052391935
0.052494664 -0.0021432445 0.055999998
0.056178436 -0.0028057853 0.055999141
0.06274426 -0.0025366964 0.055826575
-0.062330242 0.0021466713 0.055898823
-0.053829722 -0.00049272866 0.051510036
-0.052570373 0.0022468225 0.055863939
-0.044092227 -0.00070776831 0.055659618
-0.043051556 0.0027515974 0.055999998
-0.037968181 0.0031176079 0.046666667
-0.029821057 0.0017298741 0.049124993
-0.028858462 0.0019161794 0.055583581
-0.019976811 0.0024162673 0.051886681
-0.019419475 0.00034657508 0.051972266
-0.0074730981 0.0041039572 0.053574294
-0.0092376014 0.0038005318 0.05492276
-0.0049527129 0.0042765755 0.05293674
0.0085601043 0.0024106503 0.047355879
0.0090810712 0.0046963035 0.053377159
0.012448753 -3.0311136e-05 0.051333334
0.015235858 0.0016904949 0.051519997
0.022692863 0.0026597669 0.056000002
0.028662561 0.00061168178 0.053391222
0.032281391 0.0024169898 0.055999998
0.037598364 0.0020494971 0.055999998
0.041930471 0.00077968492 0.05213793
0.047399882 0.0035253302 0.052606061
0.051405318 -0.00065976701 0.051134706
0.057347123 0.0025884712 0.055999998
0.057299543 -0.00022460803 0.053295858
-0.058580086 0.0088783754 0.055295233
-0.054874469 0.0080256369 0.052000001
-0.05287379 0.0077399197 0.055327695
-0.047229126 0.0088178301 0.053532314
-0.042666506 0.0072685834 0.056000002
-0.037518568 0.007640779 0.055999998
-0.032552805 0.0076296893 0.056000002
-0.026952738 0.0095214657 0.053124387
-0.020924378 0.0061216801 0.050423332
-0.015819745 0.0083694495 0.05231918
-0.012644224 0.0075898957 0.056000002
-0.0073236125 0.0092416722 0.053860269
-0.0062750229 0.0056001786 0.05502731
0.0027255404 0.0076912451 0.055999998
0.0054908609 0.0075458437 0.055790406
0.013826383 0.0061030523 0.051932156
0.012791599 0.0019097492 0.045123518
0.022344509 0.0050058076 0.048749708
0.027786573 0.0073456415 0.055999998
0.031736504 0.0067136255 0.052499998
0.037512846 0.0071416805 0.055999998
0.039987694 0.0072903088 0.052888889
0.04807125 0.0061730221 0.054729719
0.052715223 0.0083729606 0.054020632
0.057729248 0.0056743654 0.051866371
0.062398836 0.0074744048 0.055919074
-0.05765501 0.0070324326 0.049273301
-0.057809122 0.012852409 0.056000002
-0.052531984 0.012399063 0.056000002
-0.047942519 0.0104745 0.055995069
-0.042261586 0.012393951 0.055999998
-0.034608137 0.012312757 0.05295565
-0.032246668 0.012604188 0.056000002
-0.025797017 0.013657941 0.052479662
-0.023343828 0.010391564 0.054677743
-0.01967228 0.0091388738 0.052717976
-0.016008276 0.013602044 0.055333298
-0.0056475322 0.01438704 0.055460561
-0.0025804657 0.01268826 0.056000002
0.0006532367 0.010778558 0.05213793
0.0055304761 0.01355014 0.05189399
0.011512758 0.012729454 0.047703702
0.014975678 0.014413819 0.052527566
0.021941505 0.011626493 0.051782981
0.028611334 0.011931223 0.053634703
0.029237347 0.012795606 0.052930944
0.037082251 0.015085826 0.052463468
0.037788466 0.012244483 0.050582975
0.047980774 0.013047566 0.056000002
0.049579281 0.014208836 0.051982574
0.057333015 0.012510538 0.056000002
0.053044282 0.013229444 0.041773163
-0.060650673 0.015728761 0.05518904
-0.056953389 0.017368231 0.055999998
-0.048936341 0.016391428 0.051082794
-0.048269004 0.017454095 0.053031001
-0.039822228 0.018426279 0.053050976
-0.03729539 0.017241009 0.055999998
-0.032479551 0.015007585 0.053194784
-0.025862513 0.016807292 0.053579878
-0.022709042 0.017475097 0.055999998
-0.018355887 0.015440772 0.05266257
-0.01293064 0.017415866 0.056000002
-0.0087677361 0.018009456 0.053537864
-0.0032876767 0.014865527 0.055082969
0.0014876728 0.01674033 0.052548841
0.0090281945 0.0168845 0.053470097
0.010279539 0.017030245 0.048748385
0.014734403 0.016745353 0.054324124
0.021349087 0.017627064 0.04816401
0.027345916 0.017178696 0.055999998
0.032128055 0.017402859 0.056000002
0.037423309 0.017508239 0.056000002
0.042355634 0.017552245 0.055999998
0.047579691 0.017117154 0.056000002
0.052120376 0.015421117 0.054269299
