# .PCD v0.7 - Point Cloud Data file format
VERSION 0.7
FIELDS x y z
SIZE 4 4 4
TYPE F F F
COUNT 1 1 1
WIDTH 1242
HEIGHT 1
VIEWPOINT 0 0 0 1 0 0 0
POINTS 1242
DATA ascii
-0.0049999985 0.052781265 -0.047642738
0.0049999994 0.0531625 -0.04716612
0.004999998 0.052659839 -0.047258653
-0.0050000004 0.058853399 -0.046609871
-0.0049999976 0.056020971 -0.047389463
0.0049999994 0.056003038 -0.048242331
0.0049999985 0.05758056 -0.047614343
-0.0050000004 0.064910762 -0.048215616
-0.0049999985 0.062534958 -0.047441881
0.0049999994 0.063367292 -0.048038363
0.004999998 0.062412076 -0.047305841
-0.0050000004 0.066730842 -0.048398338
-0.0049779424 0.066493005 -0.047401678
0.0049999999 0.067597941 -0.048448674
0.0049999976 0.067206316 -0.047417197
-0.0050000004 0.071960188 -0.047812238
-0.004999998 0.072734736 -0.047386907
0.0049999994 0.07267037 -0.046882361
0.004999998 0.072616711 -0.047807209
-0.0050000004 0.077597469 -0.04678984
-0.004999998 0.077305369 -0.047512159
0.0049999994 0.078140683 -0.047321349
0.004999998 0.077629879 -0.047621291
-0.0050000004 0.080447942 -0.045976117
-0.004999999 0.083095208 -0.047453877
0.0049999994 0.082663618 -0.047210582
0.004999998 0.082620062 -0.0477136
-0.0050000004 0.086909197 -0.047344994
-0.0036558299 0.088185214 -0.04739254
0.0030142688 0.088748187 -0.047340084
0.004999999 0.086869702 -0.047294073
-0.0050000004 -0.08594358 -0.042918198
-0.0033719549 -0.088229381 -0.042490657
0.0022496562 -0.089000039 -0.042339277
0.004999998 -0.087083593 -0.042582933
-0.0049999976 -0.082674101 -0.042703766
0.0049999985 -0.082355455 -0.042567216
-0.0050000008 -0.077647611 -0.042629462
-0.0049999976 -0.077703014 -0.042631898
0.0047999979 -0.075013906 -0.04234118
-0.0050000004 -0.071805671 -0.041764185
-0.0049999976 -0.072380878 -0.042506799
0.004999998 -0.07269305 -0.042531207
-0.0049999976 -0.067458458 -0.042317953
0.0049999976 -0.067495234 -0.042471178
-0.004999998 -0.062223859 -0.042293858
0.0049999976 -0.062364005 -0.042278215
-0.0049999976 -0.057342578 -0.042574082
0.0049999976 -0.057448272 -0.042479802
-0.004999998 -0.052849643 -0.042283561
0.0049632718 -0.050048456 -0.04295459
-0.0049999985 -0.04724915 -0.042503238
0.004999998 -0.047384065 -0.0426176
-0.0049999985 -0.042767074 -0.042547252
0.004999998 -0.042422645 -0.042816568
-0.0049999976 -0.037640437 -0.042382166
0.0048333313 -0.035840672 -0.042629141
-0.0049999985 -0.032428633 -0.042671006
0.0049999985 -0.032500662 -0.04285185
-0.004999998 -0.027768807 -0.042355374
0.0049999976 -0.027361127 -0.042688131
-0.0049999976 -0.022335304 -0.042603049
0.004999998 -0.02225345 -0.042253681
-0.0049999976 -0.017861709 -0.042511884
0.0049999976 -0.017547762 -0.042134348
-0.004999998 -0.012441132 -0.042339966
0.004999998 -0.012086031 -0.042833559
-0.0049999976 -0.007334027 -0.042405192
0.0048529389 -0.0078376187 -0.042138372
-0.0049999985 -0.0026365675 -0.042528301
0.0049999976 -0.0025313466 -0.042541225
-0.0048638224 0.0038539469 -0.042757951
0.004999998 0.0026504146 -0.042570695
-0.004999998 0.0076049911 -0.042397778
0.0049999976 0.0074525131 -0.042504832
-0.004999998 0.012278757 -0.042391293
0.0049999976 0.012714836 -0.042496271
-0.0049999985 0.017168297 -0.042337235
0.0049999976 0.017789735 -0.042332303
-0.0049999985 0.022854555 -0.042570326
0.004999998 0.022627426 -0.042790107
-0.0049999976 0.027282819 -0.042441882
0.0049999985 0.027589595 -0.042584408
-0.0049999985 0.032649793 -0.042652033
0.0049999976 0.032601662 -0.042440489
-0.0049999976 0.03755353 -0.042420626
0.004999998 0.037453517 -0.042341489
-0.004999998 0.042826369 -0.042386413
0.0049999985 0.042756047 -0.042440716
-0.004999998 0.047510814 -0.042607293
0.004999998 0.047887262 -0.042769928
-0.0049999985 0.052416276 -0.042130344
0.0049999999 0.054362457 -0.041547015
0.004999998 0.052664366 -0.042703718
-0.0050000004 0.0575024 -0.043159485
-0.0049999985 0.057857137 -0.042905472
0.0049999994 0.058605447 -0.041399103
0.004999998 0.057427485 -0.04206929
-0.0050000004 0.060422163 -0.043060631
-0.0049999976 0.062810414 -0.042711321
0.0049999994 0.062559135 -0.042893551
0.004999998 0.062427282 -0.042642303
-0.0050000004 0.066715859 -0.043838333
-0.0049999985 0.067656808 -0.042499904
0.0049999994 0.06649448 -0.043565232
0.0048039197 0.066035755 -0.04261519
-0.0050000004 0.072857782 -0.043308139
-0.0049999985 0.072500534 -0.042280182
0.0049999994 0.072913289 -0.043065667
0.004999998 0.072521798 -0.042232454
-0.0050000004 0.077987671 -0.042192213
-0.0049999976 0.077305235 -0.042571325
0.0049999994 0.078008585 -0.043273579
0.0049999985 0.077650756 -0.042723302
-0.0050000004 0.083112508 -0.043624915
-0.004999999 0.082626477 -0.04254837
0.0049999994 0.084639356 -0.041497193
0.0049999976 0.081216991 -0.042630076
-0.0050000004 0.086437039 -0.041704178
-0.0034176048 0.088261947 -0.042560562
0.0024061592 0.08885882 -0.04270599
0.004999998 0.087055616 -0.04221439
-0.0050000004 -0.086199947 -0.037254769
-0.0036158045 -0.088163465 -0.037370455
0.0027254163 -0.089000039 -0.037876558
0.004999998 -0.086864084 -0.037438471
-0.0050000004 -0.081361815 -0.036876153
-0.0049999976 -0.082683906 -0.037401378
0.004999998 -0.082305752 -0.03759715
-0.0050000004 -0.075251102 -0.037740216
-0.0049999985 -0.077798747 -0.037456878
0.0049999976 -0.077103704 -0.037584368
-0.0050000004 -0.072447345 -0.03822377
-0.0047872327 -0.071855024 -0.03782779
0.0049999976 -0.072438002 -0.03763647
-0.0050000004 -0.069702514 -0.038168177
-0.0049999976 -0.067314498 -0.037426364
0.0049999976 -0.06743899 -0.037559707
-0.004999998 -0.062164649 -0.037644465
0.004999998 -0.062578015 -0.037715226
-0.0050000004 -0.058478627 -0.035104036
-0.0049999985 -0.057697795 -0.037709136
0.0049999985 -0.057293072 -0.03777374
-0.0049999976 -0.052566834 -0.037285358
0.0049999976 -0.052744292 -0.037503362
-0.0049999985 -0.047220368 -0.037307538
0.004999998 -0.047373544 -0.037692711
-0.0049999976 -0.042610627 -0.037768044
0.0048594242 -0.042707663 -0.037775535
-0.0049999976 -0.037567601 -0.037818287
0.0049999976 -0.037592269 -0.037118305
-0.004999998 -0.032211147 -0.037303708
0.004999998 -0.032531317 -0.037405986
-0.004999998 -0.02736384 -0.037651148
0.004999998 -0.027275272 -0.037793748
-0.0049999985 -0.022209002 -0.037551336
0.0048181796 -0.02195541 -0.037489071
-0.004999998 -0.017333889 -0.037543543
0.0049999971 -0.017374184 -0.037394531
-0.004999998 -0.012178056 -0.037205163
0.0049999976 -0.012141925 -0.037599657
-0.004999998 -0.00751031 -0.037561983
0.0048597394 -0.0082880519 -0.037433058
-0.0049999985 -0.0022821834 -0.037139766
0.004999998 -0.0024317051 -0.037723683
-0.004999998 0.0025098547 -0.037573431
0.004999998 0.00063526159 -0.03762491
-0.004999998 0.0074701286 -0.037611693
0.0049999976 0.0074338433 -0.03738673
-0.0049999985 0.012334534 -0.037477665
0.0049593807 0.010669052 -0.037319183
-0.0048113191 0.016391311 -0.038107563
0.004999998 0.017582504 -0.037221778
-0.0049999976 0.022732222 -0.037335809
0.0049999976 0.022398856 -0.037297074
-0.0049999976 0.027594114 -0.037388481
0.004999998 0.027508991 -0.037414096
-0.004999998 0.032212764 -0.037141886
0.004999998 0.032429397 -0.037550308
-0.004999998 0.037417095 -0.037356839
0.0049999976 0.037612289 -0.037148014
-0.0049999976 0.04249962 -0.037748147
0.0049999971 0.042616416 -0.037337612
-0.0049999985 0.047574762 -0.037651878
0.0049999985 0.047132846 -0.037557591
-0.0049999976 0.052439105 -0.037316643
0.0049999994 0.053201556 -0.036773238
0.0049999976 0.052571367 -0.037388664
-0.004999998 0.057130769 -0.037742455
0.0049999999 0.057508186 -0.037768114
0.004999998 0.057672333 -0.037513711
-0.0050000008 0.062657028 -0.037471395
-0.0049999985 0.062490299 -0.038029578
0.0049999994 0.06322822 -0.038265798
0.004999998 0.062408101 -0.037417077
-0.0049999985 0.067436099 -0.037216235
0.0049999994 0.067213207 -0.036923926
0.0049999976 0.067416079 -0.037688654
-0.0050000004 0.070269756 -0.037631068
-0.0049999985 0.072655693 -0.037642512
0.0049999994 0.071535572 -0.03842127
0.0049999976 0.072685026 -0.037645407
-0.0044893753 0.04760566 -0.042657614
-0.004999998 0.077228755 -0.037803613
0.0049999994 0.079802215 -0.036823738
0.004999998 0.077595331 -0.036974285
-0.0050000004 0.081264406 -0.038707048
-0.0049999976 0.082567073 -0.037276406
0.0049999999 0.082163617 -0.036668181
0.0049999985 0.082776509 -0.037593525
-0.0034691566 0.088143289 -0.037578695
0.002545032 0.088934891 -0.037336372
0.004999998 0.086998157 -0.037175268
-0.0050000004 -0.088443905 -0.034289639
-0.0034492589 -0.088132523 -0.032740157
0.0021047301 -0.086472429 -0.032346711
0.0049999985 -0.086949781 -0.032207582
-0.0050000004 -0.082670972 -0.032901615
-0.0049999976 -0.082650863 -0.032422125
0.0049999976 -0.08233384 -0.032406159
-0.0050000004 -0.07561779 -0.032846756
-0.004999999 -0.077763163 -0.032749955
0.004999998 -0.07752499 -0.03196986
-0.0050000004 -0.072827652 -0.032629542
-0.004999998 -0.072484873 -0.032382093
0.004999998 -0.07267876 -0.032766044
-0.0049999971 -0.067383088 -0.032626946
0.0049999976 -0.06734816 -0.032519661
-0.0050000004 -0.062652253 -0.032025762
-0.004999998 -0.062357206 -0.032447681
0.004999998 -0.062650695 -0.032286439
-0.0050000004 -0.057139911 -0.031477891
-0.0049999976 -0.057727482 -0.032411292
0.0049999976 -0.057431098 -0.032766864
-0.0050000004 -0.053564783 -0.031382609
-0.004999999 -0.052067164 -0.032272905
0.004999998 -0.052454427 -0.032050993
-0.004999998 -0.047481775 -0.032277346
0.0049683573 -0.046876181 -0.032800276
-0.0049999985 -0.042513277 -0.032233305
0.0049999985 -0.042519458 -0.032496396
-0.004999998 -0.037725054 -0.032424357
0.004999998 -0.037439674 -0.032438774
-0.004825775 -0.029607097 -0.032891467
0.0049999976 -0.032499548 -0.032738063
-0.0048333313 -0.027106483 -0.032794036
0.004999998 -0.027362563 -0.032586746
-0.004999998 -0.02278753 -0.032620702
0.004999998 -0.022455435 -0.032333963
-0.0049999976 -0.017484447 -0.032697026
0.0049616634 -0.017758908 -0.032712579
-0.0049999985 -0.012685462 -0.032426715
0.0049999976 -0.012401665 -0.032669369
-0.0048305066 -0.0068771453 -0.032689661
0.0049999976 -0.0078206873 -0.03266637
-0.0049999976 -0.0022962613 -0.032477304
0.0049999976 -0.0025192667 -0.032559659
-0.004999998 0.002507343 -0.032159217
0.004999998 0.0023442789 -0.032310884
-0.0049999976 0.0075363303 -0.032452699
0.0049999976 0.0077074622 -0.032586619
-0.004999998 0.013458835 -0.032482978
0.0049999976 0.012532782 -0.032695979
-0.0049999976 0.017352961 -0.032742228
0.004999998 0.017397458 -0.032568503
-0.0048188767 0.021422405 -0.032444213
0.004999998 0.022938516 -0.032593582
-0.004999998 0.027630717 -0.032330312
0.0049999976 0.027457763 -0.032283925
-0.0049999976 0.032663204 -0.032700919
0.0049999976 0.032711994 -0.032250479
-0.0048428061 0.038572777 -0.032792989
0.004999998 0.03765659 -0.032156248
-0.004999998 0.042498492 -0.032309245
0.0049999976 0.042554673 -0.032563146
-0.004999998 0.047652055 -0.032669403
0.0049999994 0.048405726 -0.03377739
0.004999998 0.047808446 -0.032543279
-0.0049999976 0.05211217 -0.032604519
0.0049999994 0.053888179 -0.032348413
0.0049999976 0.052635022 -0.032837633
-0.0049999976 0.057245411 -0.031970073
0.0049999999 0.05775924 -0.032437392
0.0048113191 0.054985065 -0.032572426
-0.0050000004 0.062923536 -0.032740679
-0.0048305066 0.060307242 -0.032621965
0.0049999994 0.062809706 -0.031958081
0.0049999985 0.062389806 -0.032330703
-0.0050000004 0.06633877 -0.032077603
-0.0049999985 0.067415632 -0.032461245
0.0049999999 0.06748265 -0.032561965
0.0049999976 0.067622453 -0.032429732
-0.0050000004 0.070400663 -0.031404279
-0.0049999976 0.07233651 -0.032573204
0.0049999994 0.073167652 -0.033790547
0.0048550298 0.072230443 -0.033008456
-0.0050000004 0.076134205 -0.030651443
-0.0048113191 0.074809261 -0.032912888
0.0049999994 0.077504709 -0.032879047
0.0049999976 0.077478252 -0.032746892
-0.0050000004 0.082178682 -0.032339782
-0.0049999985 0.082494482 -0.032326136
0.0049999994 0.084210083 -0.033252999
0.0049999985 0.082512811 -0.032418333
-0.0050000004 0.085479707 -0.03097664
-0.0037315015 0.086261913 -0.032312553
0.0026549378 0.088942543 -0.032641843
0.0049999994 0.086628698 -0.032611735
-0.0036382433 -0.088169232 -0.027318439
0.0025307538 -0.088245369 -0.027776364
0.004999998 -0.085005075 -0.027982946
-0.0050000004 -0.084896006 -0.029444959
-0.0049999985 -0.082625516 -0.027919214
0.004999998 -0.082302488 -0.027153272
-0.0050000004 -0.075660795 -0.028971314
-0.004999998 -0.07507623 -0.027948473
0.004999998 -0.07784453 -0.027601382
-0.0050000004 -0.070909247 -0.026966825
-0.004999998 -0.072593018 -0.026960365
0.004999998 -0.072638601 -0.027602755
-0.0050000004 -0.067308336 -0.028269682
-0.004999998 -0.067563072 -0.027536249
0.0049999985 -0.067245387 -0.027788458
-0.0050000004 -0.062501706 -0.026560571
-0.004999998 -0.062184118 -0.02773325
0.0049999976 -0.062641695 -0.027485002
-0.0050000004 -0.057571992 -0.026788801
-0.0049999985 -0.057346404 -0.027251359
0.004999998 -0.057494909 -0.027388887
-0.0050000004 -0.052142642 -0.028395593
-0.0049999976 -0.052297916 -0.027409591
0.004999998 -0.05256547 -0.028004792
-0.004999999 -0.047690708 -0.027859876
0.004999998 -0.047402926 -0.027353892
-0.004999998 -0.042365957 -0.027713889
0.0049999976 -0.042650189 -0.027455254
-0.004999998 -0.037572294 -0.02750269
0.0049999985 -0.037256807 -0.027545139
-0.0049999976 -0.032485068 -0.027373748
0.004999998 -0.032134246 -0.027731879
-0.004999998 -0.027532579 -0.027766274
0.0048039197 -0.025398606 -0.027424913
-0.0049999985 -0.022309642 -0.027084092
0.0049999985 -0.022556625 -0.02736086
-0.0049999976 -0.017272269 -0.027506668
0.0049999976 -0.017378736 -0.027613334
-0.0048275841 -0.010971121 -0.02776349
0.0047727264 -0.010658678 -0.028065102
-0.0049999976 -0.0071036033 -0.027807716
0.004999998 -0.0078119813 -0.027412297
-0.0049999976 -0.0024498571 -0.027384799
0.0048360634 -0.0040786695 -0.027918359
-0.0049999985 0.0024398428 -0.027563427
0.004999998 0.0023162093 -0.027452338
-0.0049999976 0.008088381 -0.027350206
0.0048648622 0.0073391492 -0.028101761
-0.004999998 0.012410585 -0.027631704
0.004999998 0.012246562 -0.027388556
-0.0049999976 0.017536771 -0.027199361
0.0049999976 0.017333897 -0.027487136
-0.004999998 0.0221409 -0.027875325
0.004999998 0.022476621 -0.027853543
-0.0049999976 0.027166238 -0.027750555
0.0049999976 0.027711853 -0.027381252
-0.0049999985 0.032160014 -0.027542869
0.004999998 0.032965966 -0.027774163
-0.004999998 0.037422419 -0.027594799
0.0049999976 0.037352495 -0.027477121
-0.004999998 0.042576447 -0.027761213
0.0048181796 0.0428304 -0.027564351
-0.004999998 0.047696251 -0.027698619
0.004999998 0.04747653 -0.027697844
-0.0049999985 0.052610643 -0.027552348
0.0049999985 0.052658703 -0.027214546
-0.0049999985 0.057714559 -0.02748012
0.004999998 0.05752885 -0.027187947
-0.0050000004 0.062603101 -0.026847377
-0.004999998 0.06284602 -0.027430948
0.0048691859 0.059878409 -0.027639365
-0.0050000004 0.067376837 -0.028585825
-0.004999998 0.067256875 -0.02770002
0.004999998 0.067208983 -0.02749812
-0.0050000004 0.07311932 -0.027863869
-0.0049999985 0.072538704 -0.027599439
0.0049999985 0.072098352 -0.026898414
-0.0050000004 0.077605031 -0.027637694
-0.0049999976 0.077568069 -0.027421294
0.0049999976 0.077683531 -0.027855381
-0.0050000004 0.083092093 -0.029245373
-0.0043939375 0.077385202 -0.028081184
0.0049999976 0.082120784 -0.027342524
-0.0050000004 0.086989582 -0.026479766
-0.0035935743 0.088187888 -0.027500045
0.0025242849 0.088941872 -0.027839629
0.004999998 0.086732253 -0.027534146
-0.0035804147 -0.088267639 -0.02241993
0.0025892113 -0.086155973 -0.022566313
0.0049999985 -0.086904496 -0.022369156
-0.0049999976 -0.082366794 -0.02227997
0.0049999976 -0.082749896 -0.022301188
-0.0050000004 -0.075938798 -0.024465296
-0.004999998 -0.07761436 -0.022214882
0.004999998 -0.077619836 -0.022679815
-0.0050000004 -0.07156904 -0.024510112
-0.004999998 -0.072652929 -0.023052448
0.0048412681 -0.071797773 -0.022786748
-0.0050000004 -0.068557695 -0.022528302
-0.0049999985 -0.0674413 -0.022409666
0.004999998 -0.067781709 -0.022556759
-0.0050000008 -0.063106924 -0.02321744
-0.0047222213 -0.060207002 -0.023137074
0.0049999976 -0.06246658 -0.022342853
-0.0050000004 -0.058804933 -0.022149269
-0.0048333313 -0.056279868 -0.022333976
0.0049509257 -0.055496883 -0.023155628
-0.0050000004 -0.052960586 -0.022673791
-0.0049999985 -0.052575789 -0.02249708
0.0049999985 -0.052525681 -0.022403138
-0.0050000004 -0.047160052 -0.023562727
-0.004999998 -0.047246039 -0.022847991
0.004999998 -0.047409277 -0.022289798
-0.0050000004 -0.042271715 -0.022070065
-0.004999998 -0.042880416 -0.022379512
0.0048148129 -0.043281943 -0.022683742
-0.0049999976 -0.037660226 -0.022411665
0.0048463526 -0.03559415 -0.023340177
-0.004999998 -0.032445997 -0.022611193
0.0048461515 -0.032199815 -0.02251349
-0.004999998 -0.026153963 -0.023262203
0.0049999976 -0.027345741 -0.022521786
-0.0049999976 -0.022050517 -0.02295601
0.0048333313 -0.023239685 -0.022956857
-0.0046491208 -0.017501624 -0.023166776
0.0048113191 -0.018468933 -0.022486819
-0.0049999976 -0.012318749 -0.022122214
0.004999998 -0.012429237 -0.022261182
-0.004999998 -0.0073558227 -0.022470571
0.0049999976 -0.0075941118 -0.022524372
-0.004999998 -0.0018845894 -0.022414271
0.0048181796 -0.0015953369 -0.022644214
-0.004999998 0.0023992495 -0.022610418
0.004999998 0.002645615 -0.022415841
-0.0049999976 0.0074142721 -0.022305999
0.004999998 0.0070288293 -0.022608163
-0.0049999985 0.012720925 -0.02257275
0.0048591522 0.012451491 -0.02279843
-0.0049999976 0.017394058 -0.022469033
0.004999998 0.017518608 -0.022253139
-0.0049999976 0.022634622 -0.02228363
0.004999998 0.022306209 -0.022536013
-0.0049999985 0.027232606 -0.022489462
0.0049999971 0.026399059 -0.022341166
-0.0049999985 0.032105912 -0.022033516
0.0049999994 0.03216001 -0.023929318
0.0048360634 0.032090627 -0.022315923
-0.004999998 0.037519578 -0.022330761
0.0049999976 0.037592471 -0.022554968
-0.004999998 0.042730015 -0.022431696
0.004999998 0.042117495 -0.022214524
-0.004999998 0.047445126 -0.022383697
0.0049999985 0.047591135 -0.022209166
-0.004999999 0.052359041 -0.023070373
0.004999998 0.052096367 -0.022664584
-0.0049999976 0.054717567 -0.022625959
0.004999998 0.057591755 -0.022644199
-0.0049999976 0.062310975 -0.022391964
0.0049999985 0.062928759 -0.022457186
-0.0050000004 0.068221085 -0.023074238
-0.0049999985 0.067543648 -0.022394974
0.0049999985 0.066602275 -0.02246134
-0.0050000004 0.072362371 -0.023082029
-0.0049999985 0.072764724 -0.022694819
0.0049999971 0.072721563 -0.022459321
-0.0050000004 0.075636283 -0.023113806
-0.0047777765 0.075662039 -0.023039572
0.0049999971 0.076945692 -0.022806138
-0.0050000004 0.082537197 -0.020948352
-0.004999998 0.082225725 -0.022889327
0.004999998 0.082305826 -0.022556424
-0.0050000004 0.087632373 -0.023476284
-0.003616794 0.088061593 -0.022566985
0.0025298889 0.088981271 -0.022652578
0.004999998 0.087136045 -0.022571091
-0.0034625106 -0.086806521 -0.017579008
0.0026817429 -0.088047661 -0.017616665
0.0049999985 -0.087060072 -0.017355468
-0.0049967049 -0.079696603 -0.018372539
0.004999998 -0.082545519 -0.01756696
-0.0048357383 -0.077045806 -0.018523503
0.0048180921 -0.073953874 -0.017622897
-0.004999998 -0.072554454 -0.017381607
0.0049999985 -0.072835483 -0.017695688
-0.0049999976 -0.067417987 -0.017480122
0.004999998 -0.067194298 -0.017409394
-0.0049999971 -0.062649958 -0.017692847
0.004999998 -0.062596768 -0.017549582
-0.0050000004 -0.055616532 -0.016821399
-0.004999998 -0.057692152 -0.017515961
0.004999999 -0.057608593 -0.017210251
-0.0050000004 -0.052431211 -0.016110923
-0.0049999985 -0.052876264 -0.017679995
0.0049999985 -0.052377507 -0.01772766
-0.0050000004 -0.047801234 -0.017495783
-0.0049999976 -0.047483925 -0.017246077
0.0049999976 -0.04741082 -0.017030284
-0.0050000004 -0.043283001 -0.016354527
-0.004999998 -0.040664557 -0.017735468
0.0048360634 -0.043214969 -0.017332155
-0.0050000004 -0.037725054 -0.017552134
-0.0049999976 -0.0376238 -0.017580062
0.0049999976 -0.037845772 -0.017418951
-0.0050000004 -0.033115052 -0.01963033
-0.0049999985 -0.032356273 -0.017648842
0.0048076906 -0.03311649 -0.017675404
-0.0050000004 -0.028689438 -0.015896628
-0.0048484826 -0.027720558 -0.017780155
0.0049999976 -0.027362734 -0.017409651
-0.0048412681 -0.021686409 -0.017690901
0.0049999976 -0.022725059 -0.017605785
-0.004999998 -0.017999694 -0.01742593
0.004999998 -0.017939245 -0.017569451
-0.0048245597 -0.013491592 -0.017688001
0.0049999976 -0.012573804 -0.017921649
-0.004999998 -0.0072937943 -0.017415447
0.004999998 -0.0064184745 -0.018092737
-0.0049999976 -0.0010388473 -0.017986173
0.0049999985 -0.0024521039 -0.017625546
-0.0049999976 0.00289206 -0.017581083
0.0049999976 0.0023366266 -0.017724106
-0.0049971733 0.0076415227 -0.017595841
0.004999998 0.0078615332 -0.017353751
-0.0048214267 0.013538072 -0.017529747
0.0049999976 0.012110083 -0.017838323
-0.004999998 0.017575353 -0.017534293
0.0049999985 0.017234363 -0.01720185
-0.004999998 0.023335142 -0.0182395
0.0049999994 0.022138361 -0.016575385
0.0049999985 0.022412583 -0.018054904
-0.004999998 0.027627364 -0.017797826
0.0049999976 0.027495418 -0.017469529
-0.0049999985 0.032462977 -0.017655721
0.0049999976 0.032347061 -0.017611299
-0.004999998 0.037238307 -0.017611254
0.004999998 0.037257649 -0.017618515
-0.0049999985 0.042268332 -0.017544275
0.004999998 0.040940467 -0.017777435
-0.004999998 0.047481824 -0.017190706
0.0049999976 0.046272609 -0.017574444
-0.0049780337 0.050171915 -0.017714351
0.004999998 0.052614816 -0.017112296
-0.0049999985 0.057613317 -0.017531335
0.0047916649 0.057745241 -0.018152243
-0.0047954544 0.059781738 -0.018254444
0.0049999976 0.062167343 -0.017328408
-0.0050000004 0.068414219 -0.018408801
-0.004999998 0.067780457 -0.017573286
0.004999998 0.067537792 -0.017817963
-0.0050000004 0.071863554 -0.019869525
-0.004999998 0.072548039 -0.017507784
0.0049999976 0.072766505 -0.017195409
-0.0050000004 0.076764405 -0.019467784
-0.004999998 0.077619709 -0.017766798
0.0049999999 0.079039484 -0.017226841
0.0049999976 0.077469252 -0.017292973
-0.0050000004 0.083650157 -0.016829927
-0.0049735485 0.077229835 -0.01831512
0.0043617012 0.080881841 -0.018993013
-0.0050000004 0.087999366 -0.018533872
-0.0034743841 0.088370495 -0.017367462
0.0025461949 0.088742711 -0.017246366
0.0049999976 0.086967476 -0.017669834
-0.003469256 -0.088251576 -0.012466057
0.0024713515 -0.089000009 -0.012708331
0.004999998 -0.086981699 -0.012450973
-0.0049999976 -0.082248747 -0.012532371
0.0049999985 -0.082606301 -0.012527445
-0.004999998 -0.077502176 -0.012243735
0.0049999976 -0.077588528 -0.012691459
-0.0047999979 -0.069743827 -0.01280446
0.004999998 -0.072542384 -0.012597294
-0.0048740357 -0.068036035 -0.013684643
0.0049999976 -0.067537136 -0.01234544
-0.004999998 -0.06270726 -0.012817997
0.004999998 -0.062492527 -0.011968063
-0.0049999976 -0.057457179 -0.012210966
0.0049999971 -0.057680774 -0.012691539
-0.0048412681 -0.050825763 -0.013001346
0.0046651326 -0.048610933 -0.013869734
-0.0050000004 -0.046060491 -0.012674573
-0.004999998 -0.047527261 -0.012436572
0.004999999 -0.047570959 -0.012630241
-0.0050000004 -0.041188363 -0.014967397
-0.0049999985 -0.042154666 -0.013159482
0.0048175105 -0.040890843 -0.013018955
-0.004999998 -0.037537664 -0.012521226
0.004999998 -0.037326455 -0.012601126
-0.0050000004 -0.033545718 -0.01101454
-0.0049999985 -0.032646667 -0.012349062
0.0049999985 -0.03293385 -0.012500948
-0.0050000004 -0.026649185 -0.01257597
-0.0049999976 -0.027501896 -0.01238541
0.0049999976 -0.027487619 -0.012668057
-0.0050000004 -0.023543004 -0.012444239
-0.0049999971 -0.022442305 -0.012571559
0.0048148129 -0.022930356 -0.012802808
-0.0049999985 -0.017573306 -0.012666104
0.004999999 -0.017270869 -0.012895888
-0.0048215464 -0.013024612 -0.012513189
0.0049999976 -0.012665098 -0.012520593
-0.0048360634 -0.0076897591 -0.012531355
0.0049999976 -0.0075701633 -0.012674205
-0.004999998 -0.0023771129 -0.012503349
0.0049999976 -0.0026976678 -0.012823409
-0.0048939567 0.0012463512 -0.012798839
0.004999998 0.0024527656 -0.012577094
-0.0049999971 0.0070264838 -0.012578697
0.004999998 0.0077906069 -0.012256909
-0.0049999976 0.012312314 -0.012751035
0.004999998 0.012386337 -0.012346069
-0.0049999976 0.017763309 -0.011942786
0.004999998 0.017518785 -0.012540352
-0.0048360634 0.023607034 -0.012764255
0.0049999985 0.022654286 -0.012130846
-0.0049749748 0.028225396 -0.013060053
0.0047521954 0.026125355 -0.013476136
-0.004999998 0.032675125 -0.012741094
0.0049999976 0.033253089 -0.013331516
-0.004999998 0.037539314 -0.01255914
0.0049999985 0.037474401 -0.012374155
-0.0049999976 0.042566307 -0.012542157
0.004999998 0.04258028 -0.012563646
-0.004999999 0.047944047 -0.012347622
0.004999998 0.04728777 -0.012359077
-0.0049999985 0.052464042 -0.012317522
0.0049999976 0.052600857 -0.012739056
-0.0049999976 0.057555713 -0.012112844
0.0049999976 0.057719026 -0.012566034
-0.004999998 0.062275913 -0.012781494
0.0049999976 0.062414631 -0.012602055
-0.0050000004 0.067784868 -0.012677855
-0.0048611085 0.068043023 -0.01311045
0.0049999976 0.06748312 -0.012340045
-0.0048343465 0.069236688 -0.013544511
0.0047999979 0.072730862 -0.013121986
-0.0050000004 0.075166352 -0.014042059
-0.0049999976 0.0775631 -0.012520508
0.0049999994 0.077227347 -0.01292812
0.0048484826 0.075197116 -0.012928815
-0.0049999976 0.082147382 -0.01243946
0.004999998 0.08250156 -0.012775387
-0.0050000004 0.087221935 -0.012275329
-0.0035792096 0.088030092 -0.01226957
0.0022931234 0.089000061 -0.012581346
0.004999998 0.08453057 -0.013029008
-0.003583136 -0.088450901 -0.0073703686
0.0030078599 -0.089000002 -0.0071747131
0.0049999985 -0.086916938 -0.0078931889
-0.004999998 -0.082272261 -0.0074609742
0.0048181796 -0.081833504 -0.0080225701
-0.004999998 -0.077607907 -0.007544104
0.0049999976 -0.077708989 -0.0075238752
-0.0049999976 -0.072148778 -0.0073929136
0.004999998 -0.072282471 -0.007761789
-0.004999998 -0.067856997 -0.0073379348
0.0049999985 -0.067613065 -0.0073049972
-0.004999998 -0.062270857 -0.0075288573
0.004999998 -0.062220264 -0.0073714415
-0.0048769158 -0.056014635 -0.0080581894
0.0048148129 -0.056021228 -0.0086432444
-0.004824928 -0.049803678 -0.0083521167
0.0049999976 -0.052499946 -0.0078435428
-0.004999998 -0.047242992 -0.007025681
0.004999998 -0.047919605 -0.0072707692
-0.0050000004 -0.042244937 -0.0095481817
-0.0049999976 -0.042698022 -0.0076574422
0.0049999985 -0.042511001 -0.0077694068
-0.0050000004 -0.03877968 -0.0079479292
-0.0047499426 -0.036965273 -0.0077001462
0.0049999976 -0.037523691 -0.0075612208
-0.0050000004 -0.030785045 -0.0074000023
-0.0049999976 -0.0327476 -0.0074416292
0.004999999 -0.0324682 -0.0073529389
-0.0050000004 -0.028383199 -0.0094340583
-0.0049999976 -0.027404578 -0.0077018724
0.0046551707 -0.02670991 -0.0082159173
-0.0050000004 -0.020419618 -0.007426206
-0.0048305066 -0.020059468 -0.0083101755
0.0049999976 -0.02251674 -0.007403587
-0.0050000004 -0.019641213 -0.0092266407
-0.004999998 -0.016749702 -0.0080839265
0.0049999976 -0.017593626 -0.0075189518
-0.0048387074 -0.013546526 -0.007527486
0.0046961824 -0.012632138 -0.0085262898
-0.0048484826 -0.007506893 -0.0076312623
0.0049999976 -0.0075616138 -0.0075459555
-0.004999998 -0.0027012783 -0.0075222561
0.0049999994 -0.0016931295 -0.0068543758
0.0049999976 -0.0037379989 -0.0079824142
-0.0049999976 0.001348288 -0.0080131488
0.0049999976 0.0023583046 -0.0076785097
-0.004999998 0.0073955604 -0.0075098397
0.0049999976 0.0076019885 -0.0075958427
-0.0049999985 0.010800499 -0.0078593483
0.004999998 0.01238355 -0.0079198154
-0.0049999971 0.017601244 -0.0075315027
0.0048333313 0.017324217 -0.0081410725
-0.0049999971 0.022602646 -0.007411635
0.0048214267 0.022210302 -0.0084318444
-0.004999998 0.027338354 -0.0076901922
0.0049999971 0.026678165 -0.0077103171
-0.004999998 0.032200702 -0.0073889941
0.004999998 0.03177109 -0.0073989127
-0.004999998 0.037723556 -0.0079118311
0.0049999976 0.036693141 -0.0081014475
-0.004999998 0.042437673 -0.0078572845
0.0049999976 0.040987629 -0.0081429752
-0.0049999976 0.04797475 -0.0079105198
0.0048076906 0.046207447 -0.0078373533
-0.0049999976 0.053003717 -0.0073316041
0.0047999979 0.053581141 -0.008266245
-0.0048113191 0.058065765 -0.008002324
0.0049999976 0.05755261 -0.0075967885
-0.0049999985 0.062758744 -0.0073646917
0.0049999976 0.062436368 -0.0074525313
-0.0049999985 0.067553893 -0.0078537967
0.0045633516 0.065946832 -0.0081459899
-0.0049999976 0.072638564 -0.0074990964
0.0047872323 0.068926357 -0.0079980129
-0.0049999985 0.077698015 -0.0075579728
0.0045645745 0.07557755 -0.0087568611
-0.0050000004 0.084463865 -0.0086903013
-0.004999998 0.082917586 -0.0070173591
0.004999998 0.082562901 -0.0072853183
-0.0036669711 0.087965153 -0.0073605226
0.0022910908 0.089000076 -0.0074170586
0.0048181796 0.084610261 -0.0078290794
-0.0036352677 -0.088119067 -0.0025039203
0.0024740736 -0.087767504 -0.0028938516
0.0048113191 -0.085115731 -0.0027394621
-0.0049999976 -0.082109265 -0.0025324109
0.0049999985 -0.082653761 -0.0027838901
-0.0049969726 -0.076376304 -0.0029069709
0.004999998 -0.077661075 -0.002334526
-0.0049999976 -0.069983535 -0.0027076474
0.0047674403 -0.069290407 -0.0032313927
-0.004999998 -0.067861587 -0.0024552348
0.0048333313 -0.065662898 -0.0029754788
-0.0049999985 -0.062757395 -0.0024955033
0.004999998 -0.062504485 -0.003002455
-0.0049999976 -0.057280689 -0.0023727734
0.0049999976 -0.056553766 -0.0028227367
-0.004999998 -0.052307047 -0.0024237989
0.004953749 -0.051954776 -0.0034908275
-0.0049999985 -0.047798648 -0.0031267069
0.0049999985 -0.047310933 -0.0025113993
-0.0049999976 -0.041254323 -0.0028491635
0.0048387074 -0.042024087 -0.0025494604
-0.004999998 -0.03795208 -0.0024707236
0.0049999985 -0.034554832 -0.0036951608
-0.0049786991 -0.03226709 -0.0037537268
0.004999999 -0.032345612 -0.0026677437
-0.0050000004 -0.025509924 -0.0034133811
-0.0048387074 -0.027132068 -0.0031823076
0.0049999976 -0.027612168 -0.0025214211
-0.0050000004 -0.023963436 -0.0025739875
-0.0049999985 -0.022610161 -0.0022995151
0.004999998 -0.022631655 -0.0025182674
-0.0050000004 -0.018595353 -0.0034380965
-0.004999998 -0.017307268 -0.0024881242
0.0049999976 -0.017408399 -0.0024995706
-0.0046874979 -0.012004725 -0.0031207455
0.0047988277 -0.010934751 -0.0037867597
-0.0049999976 -0.0073082275 -0.0024974861
0.0048148129 -0.0087781241 -0.0034141124
-0.004999998 -0.0022137079 -0.0028706228
0.0047222213 -0.0017309526 -0.0035761814
-0.0049999976 0.0025174862 -0.0024111508
0.004999998 0.0024965489 -0.0020831686
-0.0048775054 0.0089365318 -0.0038100509
0.0048437477 0.0082437675 -0.0030149966
-0.004999998 0.012416263 -0.0023900238
0.0049999976 0.012715956 -0.0025033397
-0.0048245597 0.018179536 -0.0039052106
0.0049999976 0.016612792 -0.0036041108
-0.0049999971 0.022420909 -0.002568577
0.0049999985 0.022562573 -0.0024332886
-0.0048412681 0.0260325 -0.0036627257
0.0049999976 0.027527116 -0.0025464443
-0.004999998 0.030588288 -0.0028586849
0.0047296616 0.030862665 -0.0043865163
-0.0047022807 0.033644218 -0.0040933299
0.0049999976 0.037532512 -0.0024017878
-0.0049999985 0.042428847 -0.0026783959
0.004999998 0.042254232 -0.0021180524
-0.0049999985 0.045167331 -0.002885557
0.0049999976 0.047589462 -0.0024551584
-0.0049999976 0.052436817 -0.0025619632
0.0049999976 0.052383345 -0.0027565686
-0.004999998 0.056512475 -0.0028697115
0.0049980758 0.056864008 -0.0033060636
-0.004999998 0.062683575 -0.0025192439
0.0049999976 0.062497988 -0.0025815463
-0.004999998 0.067326576 -0.0023181692
0.0048039197 0.06454771 -0.0029168504
-0.0046575945 0.066356644 -0.0045142034
0.0048148129 0.072591335 -0.0032505689
-0.0048148134 0.075860567 -0.0024072025
0.0049999994 0.077399231 -0.0028649112
0.0049526785 0.075772636 -0.0037813031
-0.004999998 0.082960427 -0.0022504968
0.004999998 0.082267903 -0.0024601554
-0.0035268792 0.088352658 -0.0023772095
0.0026183433 0.088642821 -0.00282053
0.0049426993 0.082949124 -0.0035957694
-0.0033418182 -0.088320643 0.0023399505
0.0024023824 -0.089000024 0.002436822
0.0049397927 -0.084228493 0.00088097859
-0.0048305066 -0.081533901 0.0025019404
0.004999998 -0.082248017 0.0026745554
-0.0049999985 -0.077561557 0.0029512388
0.0049999976 -0.077408493 0.0025955415
-0.0049999971 -0.072623841 0.0025368978
0.004999998 -0.068949677 0.0014775936
-0.0049999976 -0.065524749 0.0024238569
0.0049999976 -0.066032484 0.0023194174
-0.0049999985 -0.062242463 0.0025799684
0.0048181796 -0.061881654 0.0017766536
-0.004999998 -0.057543959 0.002817878
0.0048076906 -0.057212617 0.0022215329
-0.0049999985 -0.05251297 0.0021737712
0.0049999976 -0.052618898 0.0020864885
-0.0049999976 -0.04769934 0.002267828
0.0049999976 -0.047542609 0.0024554709
-0.0047872323 -0.042137489 0.0016714595
0.004999998 -0.042586029 0.0023969791
-0.004999998 -0.037714984 0.002632075
0.004999998 -0.037791379 0.002864972
-0.004999998 -0.032419197 0.0026724895
0.0048591522 -0.03328599 0.0019682089
-0.004999998 -0.027349858 0.0028105306
0.0047999979 -0.02708682 0.0019868589
-0.004999998 -0.022527821 0.0022112157
0.0049999994 -0.024815023 0.00019686855
0.0049999976 -0.02206848 0.0019464975
-0.0050000004 -0.018533334 0.0014411155
-0.00485588 -0.016195418 0.0025297336
0.0049999994 -0.015515918 0.0041138614
0.0049999976 -0.017783936 0.0025718205
-0.0050000004 -0.014107149 0.0015054941
-0.0049999976 -0.012460261 0.0025091127
0.0049999994 -0.012599483 0.0040417761
0.0045555546 -0.013184839 0.0011089063
-0.0048214267 -0.0083887409 0.0024000143
0.0049999985 -0.007930832 0.0025682221
-0.004999998 -0.0025482352 0.0025436124
0.004999998 -0.0029910991 0.0025573056
-0.004999998 0.0027740377 0.0021899506
0.004999998 0.0023100809 0.0027946853
-0.004999998 0.0062009133 0.0015675839
0.0049999985 0.0075815311 0.0025037434
-0.0049999976 0.013621004 0.0020184487
0.0049999976 0.011631294 0.001443437
-0.0048484826 0.016738081 0.0018643726
0.0049999976 0.017242126 0.002663699
-0.004999998 0.022852466 0.0026561681
0.0048360634 0.023335347 0.0024342334
-0.0049999985 0.027698273 0.0026601339
0.004958353 0.028416846 0.0024783115
-0.0048437477 0.032624576 0.0023095645
0.0049999985 0.032551184 0.0024436128
-0.004999998 0.037437059 0.0022389083
0.0049999976 0.037432339 0.0025145265
-0.004999998 0.042080488 0.0025254712
0.0049973135 0.041476082 0.0022311022
-0.004999998 0.04775773 0.0022986582
0.0049999976 0.047604349 0.0024632937
-0.004999998 0.052277282 0.0021248355
0.004999998 0.052546639 0.0025388899
-0.0047208681 0.054715313 0.0025981227
0.004999998 0.057105802 0.0026800521
-0.0049999976 0.062382024 0.0025327082
0.0049999976 0.062200394 0.0025214201
-0.004999998 0.065029569 0.0023461808
0.0049999976 0.067496151 0.002419004
-0.0049999976 0.072534107 0.002230509
0.0048591522 0.072489329 0.0016197283
-0.0050000004 0.077213854 0.002980235
-0.004999998 0.077547334 0.0028803544
0.004999998 0.077168219 0.0024586292
-0.0050000004 0.082741246 0.0011711735
-0.0048076906 0.080377936 0.0024731576
0.0049999971 0.080660939 0.002399707
-0.0050000004 0.088160753 0.0012389217
-0.0038915337 0.087867506 0.0023372376
0.0025692319 0.089000039 0.0025481018
0.0049999985 0.086483762 0.0027730654
-0.0036094026 -0.086667657 0.0070104403
0.0026379891 -0.086466536 0.0069221929
0.0049999985 -0.086829662 0.0078553939
-0.0048113191 -0.07986448 0.0067921882
0.0048684184 -0.080372639 0.0068827341
-0.0049999976 -0.077853493 0.007289846
0.004999998 -0.07754752 0.0073167738
-0.004999998 -0.072326027 0.0073619662
0.0049999976 -0.072724037 0.0075989673
-0.0049814079 -0.067292042 0.0064054723
0.004999998 -0.067525841 0.0078385416
-0.004999998 -0.061060496 0.0055529019
0.0049999985 -0.062700301 0.0075738276
-0.0048305066 -0.05549721 0.0068528727
0.0048039197 -0.056599334 0.0071136551
-0.0048245597 -0.050268371 0.0062693441
0.004999998 -0.053062126 0.0068679913
-0.0048484826 -0.046458654 0.0068377932
0.0048039202 -0.046954729 0.007133224
-0.0049999985 -0.04242808 0.0077806865
0.004999998 -0.042547278 0.0076238536
-0.004999998 -0.037862647 0.0074172178
0.0049999994 -0.038855042 0.0083716474
0.0049999985 -0.037497919 0.0079026874
-0.004999998 -0.03247416 0.0075021232
0.0049999994 -0.032116041 0.0084724929
0.0049999985 -0.032669652 0.0077268365
-0.004999998 -0.027803374 0.0072539025
0.0049999999 -0.027485123 0.0084756725
0.004999998 -0.027388202 0.0077148508
-0.004999998 -0.02253053 0.0071973037
0.0049999994 -0.020810369 0.0092545999
0.0048484826 -0.022944951 0.0070000985
-0.0048046494 -0.018108388 0.006981771
0.004999998 -0.018861175 0.0059839692
-0.0049999971 -0.012559672 0.0072433786
0.0049999994 -0.013623163 0.0057371575
0.0049999976 -0.012556053 0.007523315
-0.0049750032 -0.0076344116 0.0061445017
0.0048275841 -0.006373819 0.007233894
-0.004999998 -0.0022515452 0.00762772
0.004999998 -0.00099785067 0.0072172694
-0.0046226401 0.0025486902 0.0058883075
0.0049999976 0.002642289 0.0072639785
-0.0049999976 0.0072579025 0.0074774181
0.004999998 0.007595981 0.0077646752
-0.004999998 0.012388395 0.007230184
0.0049999976 0.01213636 0.0069459612
-0.0049999976 0.017267179 0.0076117031
0.004999998 0.018924786 0.0071592275
-0.004999998 0.021838542 0.0075459718
0.0049999976 0.022584056 0.0065735932
-0.0049999976 0.027481599 0.0076758722
0.004999998 0.027072556 0.0073971562
-0.004999998 0.031184152 0.0072999243
0.004999998 0.032161869 0.0076086405
-0.0047098086 0.03660962 0.0063079298
0.0048113191 0.035306975 0.0067683887
-0.004999998 0.042368572 0.0072161113
0.0049999976 0.042018864 0.0072526843
-0.0049999985 0.047864426 0.0071417396
0.0048437477 0.047896773 0.0066803037
-0.0049709594 0.051379435 0.0062238593
0.0048412681 0.051321581 0.0072356164
-0.0049999976 0.057585556 0.0076937643
0.0049999985 0.057366326 0.0075818216
-0.004999998 0.060137387 0.0065848297
0.004999998 0.062279183 0.007232137
-0.004999998 0.067225918 0.0070723495
0.0049999994 0.069348484 0.0097179059
0.004999998 0.067448787 0.0074024587
-0.0049999976 0.07282953 0.0075108423
0.004999998 0.072510041 0.0074610393
-0.0049999976 0.077550255 0.00755117
0.0049999976 0.077679776 0.0072823251
-0.0049999985 0.082374237 0.0074946387
0.0049968539 0.080384851 0.0064885127
-0.0035875081 0.086987577 0.0072666528
0.0024841819 0.088327266 0.00703558
0.0049999985 0.087014899 0.0071914615
-0.0035677981 -0.086508989 0.01188587
0.0023744772 -0.089000031 0.012399045
0.0049999985 -0.086911537 0.012434732
-0.004999998 -0.082761914 0.011400478
0.004999998 -0.080778398 0.012068781
-0.0049999976 -0.077643789 0.012631612
0.004999998 -0.077380896 0.012286739
-0.0049999976 -0.070114627 0.011670638
0.004999998 -0.072749428 0.012228531
-0.0049999976 -0.067392118 0.012570201
0.0048113191 -0.067462608 0.01234714
-0.0045522368 -0.059467107 0.010303827
0.0049999976 -0.062773675 0.012350132
-0.004999998 -0.057665635 0.012541829
0.0048305066 -0.057365969 0.011718689
-0.004874472 -0.053165492 0.011582901
0.0048574707 -0.051290262 0.012115293
-0.004999998 -0.048041612 0.011830067
0.0049999994 -0.049247846 0.014972911
0.0049999976 -0.047422424 0.012443903
-0.0049999976 -0.042525403 0.012675973
0.0049999994 -0.041006118 0.014897966
0.004999998 -0.042520192 0.012990029
-0.0049999976 -0.03763536 0.011425963
0.0048214267 -0.036862221 0.011876681
-0.0049999976 -0.032313332 0.01236658
0.0049999994 -0.033625692 0.012266614
0.0048412681 -0.03222166 0.012517584
-0.004999998 -0.026584946 0.011979125
0.0049999994 -0.027817458 0.012349161
0.0049616569 -0.025554229 0.012141162
-0.0049999976 -0.022560066 0.012273154
0.0049999994 -0.023086537 0.011318761
0.0046749073 -0.019650545 0.011226932
-0.004999998 -0.017641013 0.012514928
0.0049999976 -0.017567324 0.012334677
-0.004999998 -0.012500903 0.012515773
0.004999998 -0.012572409 0.01221869
-0.004999998 -0.0074314736 0.012561816
0.004999998 -0.0074853031 0.012376324
-0.0049999976 -0.0024115951 0.012330441
0.004959485 -0.00084681209 0.012533247
-0.0048351455 0.0031514606 0.011560136
0.0047368412 0.0042769308 0.010782338
-0.0049999976 0.0069870553 0.012377152
0.0048044105 0.0072879009 0.011110773
-0.0048461515 0.012518192 0.011489654
0.0049999976 0.012513495 0.0118759
-0.0048148129 0.017027568 0.011341225
0.0049554231 0.016432468 0.011325398
-0.0050000004 0.02241851 0.014166759
-0.0048119198 0.023289327 0.011808379
0.0046153832 0.023504931 0.01073521
-0.004761904 0.028756786 0.0107834
0.004999998 0.027453421 0.012484752
-0.004690446 0.03068313 0.011169038
0.0048461105 0.033193145 0.011516605
-0.0049999976 0.03694452 0.011845393
0.0048461515 0.036516082 0.011485431
-0.004999998 0.04268707 0.012672173
0.0049999976 0.042346012 0.01270796
-0.0049999976 0.047388777 0.012721167
0.004999998 0.047351029 0.012737464
-0.004999998 0.052313045 0.012563307
0.0049999976 0.052689351 0.012199104
-0.0047955234 0.055097159 0.012095335
0.004999998 0.057589084 0.012351082
-0.0049662865 0.059277218 0.011277966
0.004999998 0.062714383 0.012507188
-0.0049999971 0.067555293 0.012379534
0.0049999994 0.065903232 0.012384158
0.0049999985 0.067631222 0.012275453
-0.004999998 0.068831958 0.011040725
0.0049999976 0.072480947 0.012400767
-0.004999999 0.077495143 0.01256449
0.0049999999 0.077258065 0.014138861
0.004999998 0.077496983 0.012393791
-0.0048529389 0.078173794 0.010867402
0.0049999999 0.082394868 0.012720264
0.0048076906 0.080574833 0.012289984
-0.0037817738 0.08573322 0.012413372
0.0029889971 0.088999994 0.01240831
0.0049999994 0.083531506 0.012431535
-0.003677797 -0.088178597 0.017597958
0.0023480528 -0.089000039 0.017447429
0.004999998 -0.083331063 0.015733067
-0.004999998 -0.082603402 0.017547721
0.004999998 -0.082520679 0.01774992
-0.0049999971 -0.077388592 0.017423874
0.0047390559 -0.073974304 0.016535264
-0.004848164 -0.070494227 0.0167314
0.0049999985 -0.072694369 0.017769789
-0.0049999985 -0.067741811 0.017652256
0.0049999976 -0.065789729 0.016540242
-0.0049999976 -0.062412716 0.016909735
0.0049999994 -0.062936246 0.019188464
0.004999998 -0.062618725 0.01720709
-0.0049999971 -0.055587023 0.016633894
0.0049999994 -0.058122188 0.016938737
0.004999998 -0.057471383 0.017321086
-0.0046491208 -0.049259145 0.015749104
0.0049999994 -0.054807752 0.016604248
0.0048333313 -0.051654 0.017440353
-0.0049999985 -0.04790787 0.01811984
0.004999998 -0.04680068 0.016751608
-0.0048275841 -0.040236358 0.016465584
0.0049999999 -0.041369207 0.016978312
0.0048467983 -0.040206179 0.01679408
-0.0048479275 -0.035708044 0.016277121
0.0049999994 -0.036976278 0.016817059
0.0049964711 -0.037291609 0.017216837
-0.0048181796 -0.031488609 0.016546724
0.0049999994 -0.032696683 0.016492441
0.0049999976 -0.032240879 0.017490316
-0.004999998 -0.027399546 0.017332135
0.0049999999 -0.027659528 0.01565077
0.004999998 -0.027347274 0.017165948
-0.004999998 -0.022406388 0.017448418
0.0048245597 -0.021526776 0.016770365
-0.004999998 -0.017398581 0.017174326
0.0049999976 -0.017644089 0.017457189
-0.0049999985 -0.012780659 0.017665487
0.0049999976 -0.010351532 0.015244519
-0.0049999976 -0.0074670473 0.017663902
0.0048454525 -0.0091213686 0.016007522
-0.0049751364 -0.00082658959 0.01690446
0.0049999976 -0.0027473802 0.017485235
-0.0049999985 0.00094982202 0.016040921
0.0049999976 0.0034404397 0.016961619
-0.004999998 0.0074588927 0.017549716
0.0047872323 0.0063662026 0.016483903
-0.0048076906 0.013072976 0.016309544
0.0049999971 0.011779047 0.016621064
-0.0049701016 0.019267134 0.015710862
0.0048507438 0.018007373 0.016504068
-0.0048388895 0.022295963 0.017473465
0.0049999976 0.022405207 0.017566074
-0.004999998 0.02728075 0.017527448
0.004878046 0.027687252 0.017070629
-0.0049999976 0.032234214 0.017270101
0.0049999985 0.032145713 0.01746276
-0.0049999976 0.037640125 0.016803645
0.004999998 0.035970528 0.01734894
-0.0049999976 0.042944662 0.017518185
0.0049999976 0.042472135 0.017542712
-0.004999998 0.045881793 0.016106637
0.0047916649 0.046214372 0.016310669
-0.0049999985 0.052759089 0.016766071
0.0048507438 0.050563719 0.017295029
-0.0049673249 0.055008635 0.015748192
0.0049999976 0.054659255 0.015600901
-0.004999998 0.062192548 0.017132321
0.004999998 0.062256116 0.017616769
-0.0047142832 0.063237041 0.015552866
0.0049999994 0.067702711 0.017816842
0.0047959168 0.066641048 0.016943265
-0.0048052059 0.067454785 0.017756939
0.0049999999 0.073187709 0.017302589
0.004999998 0.072525606 0.017307865
-0.004999998 0.077596411 0.017612299
0.0048076906 0.074206136 0.014786106
-0.004999998 0.082209058 0.017760972
0.0049999994 0.084530786 0.018274985
0.0048035695 0.078249037 0.016498568
-0.0050000004 0.08865504 0.016291548
-0.0032130156 0.08769118 0.017618874
0.0023755177 0.088999994 0.017107949
0.004999998 0.086268187 0.016158633
-0.0038236878 -0.085839167 0.021245448
0.0022107752 -0.088985786 0.021532698
0.004999998 -0.086838447 0.022303618
-0.004999998 -0.082128294 0.022388577
0.0047881929 -0.078351915 0.021345509
-0.004999998 -0.076942638 0.022216273
0.004999998 -0.077656113 0.022475857
-0.0046392209 -0.065663621 0.018333459
0.004999998 -0.072447062 0.021332294
-0.004999998 -0.066692993 0.021728368
0.0049999994 -0.067666948 0.022757575
0.004999998 -0.067156665 0.022503816
-0.004999998 -0.062718756 0.022412136
0.0049999999 -0.062897824 0.023203818
0.004999999 -0.062188089 0.022208048
-0.004999998 -0.05731079 0.022451682
0.0049999994 -0.055211049 0.020002566
0.004999998 -0.056424946 0.020478534
-0.0049999976 -0.052367222 0.022686949
0.0046363617 -0.049245212 0.019979864
-0.0048550703 -0.04731467 0.022405393
0.0049999994 -0.048176929 0.022461865
0.004999998 -0.047175888 0.022378471
-0.0048245597 -0.042295329 0.020205433
0.0049999999 -0.043274786 0.022699926
0.0049999985 -0.04245615 0.022629643
-0.0049999976 -0.037696861 0.022281382
0.0049999994 -0.036964446 0.020373389
0.0049999985 -0.037314735 0.022255171
-0.004999998 -0.032525886 0.022504447
0.0049999985 -0.032536186 0.022574166
-0.004999998 -0.026637631 0.022006916
0.0049999976 -0.02767772 0.022762343
-0.0049972869 -0.023190925 0.021893306
0.0049999976 -0.022421753 0.022542652
-0.0049999976 -0.017212836 0.022491878
0.0049410383 -0.015780445 0.020799212
-0.004999998 -0.012710191 0.022832016
0.0049999976 -0.012391648 0.021720115
-0.0049999971 -0.0078653768 0.022425508
0.0048214267 -0.0081018005 0.021703523
-0.004999998 -0.0011798898 0.022089692
0.0049999985 -0.002322789 0.022380481
-0.0049928371 0.0016115811 0.022215305
0.0049999976 0.00259326 0.022339506
-0.004999998 0.0074182535 0.022365401
0.004999998 0.0075366041 0.022602083
-0.0048039202 0.012173041 0.021711994
0.004997422 0.0091717942 0.019942101
-0.0049999976 0.017330518 0.022335408
0.0048174784 0.018536707 0.019976225
-0.004999998 0.022492744 0.022441642
0.004999998 0.022464292 0.022591328
-0.0048181796 0.027170813 0.021845544
0.0049599758 0.027935809 0.021411927
-0.004824928 0.02952062 0.021403771
0.0049999971 0.031141028 0.022340324
-0.0050000004 0.035614837 0.024957908
-0.0049999976 0.037389018 0.022286696
0.0048360634 0.035750814 0.022099994
-0.0048333313 0.040469132 0.021469146
0.004960536 0.04245818 0.021871777
-0.0049965819 0.045983247 0.021369874
0.0049999976 0.04705942 0.022415224
-0.0049999971 0.052432928 0.022186253
0.0047959164 0.052074138 0.022094062
-0.0049999985 0.057642326 0.020993179
0.004999999 0.054006737 0.02197789
-0.0049999985 0.062451802 0.022517322
0.0049999999 0.06374912 0.022840498
0.0049986709 0.059676703 0.020991916
-0.0047916649 0.06638667 0.022301622
0.004999999 0.06000052 -0.011135342
0.0049563437 0.067021728 0.021195339
-0.0048867543 0.07031177 0.022100829
0.004999998 0.072329476 0.022909475
-0.0046491828 0.074676692 0.021356665
0.0049999999 0.076202571 0.022612274
0.0048461515 0.07460355 0.021771947
-0.004999998 0.082599275 0.022612512
0.0049999994 0.080555797 0.022578236
0.0049449103 0.079726182 0.021256614
-0.0035863824 0.087227389 0.022748692
0.0026057379 0.088954419 0.02248485
0.004999999 0.086884893 0.022347564
-0.0036554665 -0.088041149 0.027036751
0.0026770991 -0.08747524 0.02724354
0.004999998 -0.087096587 0.027328469
-0.0049999976 -0.080468878 0.026395397
0.0048024147 -0.081304066 0.025489146
-0.0048461515 -0.076589271 0.02736111
0.0049999994 -0.077184916 0.027777717
0.0049999976 -0.077561975 0.02754966
-0.0048010759 -0.072179183 0.025758903
0.0049999994 -0.072281405 0.027225776
0.0049999994 -0.072316803 0.02774174
-0.0049999976 -0.0673877 0.0279014
0.0049999999 -0.067616746 0.027797928
