# .PCD v0.7 - Point Cloud Data file format
VERSION 0.7
FIELDS x y z
SIZE 4 4 4
TYPE F F F
COUNT 1 1 1
WIDTH 829
HEIGHT 1
VIEWPOINT 0 0 0 1 0 0 0
POINTS 829
DATA ascii
-0.0069656428 -0.015724352 -0.030305538
-0.0023495676 -0.016378433 -0.030652985
0.0025475542 -0.016271746 -0.030695161
0.0067718253 -0.015709687 -0.03036486
-0.011538913 -0.011900431 -0.030661978
-0.0073796539 -0.012547977 -0.031641833
-0.0026287709 -0.012450279 -0.032424018
0.0023765166 -0.012655968 -0.032353006
0.0074444576 -0.012582699 -0.031609856
0.011726799 -0.011721171 -0.030650904
-0.015764795 -0.006577983 -0.030422036
-0.012517748 -0.0075782165 -0.03161766
-0.0075332294 -0.0074863983 -0.03317856
-0.0023897495 -0.0077121151 -0.033874918
0.0024238368 -0.0075085 -0.033916634
0.0074887513 -0.0074811666 -0.033193279
0.012636251 -0.0076009096 -0.031565461
0.01565936 -0.0069221272 -0.030400656
-0.016268974 -0.0025395476 -0.030732011
-0.01251141 -0.0025072219 -0.032421492
-0.0075044348 -0.0025787214 -0.033930562
-0.002486913 -0.0026181985 -0.034656897
0.0024536583 -0.0026186584 -0.034657001
0.0074053998 -0.0025679453 -0.033956572
0.012466419 -0.0025154683 -0.032433271
0.016319567 -0.0024809663 -0.03071061
-0.016326597 0.0022411172 -0.030721327
-0.012587235 0.0025610651 -0.032386031
-0.0076001883 0.0023074178 -0.033927143
-0.0024643904 0.0024150114 -0.034667913
0.0024833928 0.0024979601 -0.034670096
0.0073407348 0.0025230462 -0.033973381
0.012509467 0.0024770375 -0.032424863
0.016453452 0.0023368797 -0.030649643
-0.015724085 0.006644343 -0.030429579
-0.012350717 0.0075404099 -0.03168875
-0.0076029887 0.0077433339 -0.033111677
-0.0027772274 0.0077531179 -0.033844844
0.0024300052 0.0076127574 -0.033900622
0.0075705238 0.0075814053 -0.033151273
0.012478046 0.0074523501 -0.031666093
0.015777718 0.0068463162 -0.030358322
-0.011560961 0.011920711 -0.030640304
-0.0074161501 0.012534392 -0.031641699
-0.0025394855 0.012507834 -0.032395184
0.0027522387 0.012568365 -0.032356318
0.0075717424 0.012469932 -0.03163391
0.011627673 0.011647647 -0.03070122
-0.0064244992 0.015789269 -0.030394947
-0.0022167731 0.016303305 -0.030702002
0.0022294519 0.016200215 -0.030755552
0.0068743448 0.015710793 -0.030332815
-0.011328879 -0.020819042 -0.025600584
-0.0073307189 -0.021624301 -0.026336528
-0.0025312579 -0.022162687 -0.02675519
0.0024354048 -0.022355216 -0.026600419
0.0073943152 -0.021531774 -0.026396001
0.011459484 -0.020841604 -0.025523318
-0.016128955 -0.016525641 -0.02614711
-0.012433891 -0.017651439 -0.027315458
-0.0079567023 -0.01797238 -0.02875812
-0.0025579692 -0.018851383 -0.02921349
0.0026163866 -0.018911131 -0.029167309
0.0076865666 -0.01796947 -0.028843284
0.012576341 -0.017655348 -0.027250344
0.016214846 -0.016639421 -0.026011368
-0.02075338 -0.011180382 -0.025692035
-0.017422238 -0.012695586 -0.027352512
-0.013328732 -0.013191307 -0.029397732
0.013419929 -0.013307944 -0.029301561
0.017367575 -0.012378801 -0.027524535
0.020630181 -0.011609997 -0.025592413
-0.021641031 -0.0073167561 -0.026320182
-0.017935662 -0.0078540836 -0.028825384
0.018049592 -0.0075617223 -0.028827487
0.021609342 -0.0071830754 -0.026380569
-0.021959694 -0.0024674467 -0.026761195
-0.018737676 -0.0028523935 -0.029261151
0.018876242 -0.002649948 -0.029190708
0.022003978 -0.0024673603 -0.026899248
-0.022121426 0.0024761963 -0.026812105
-0.018456992 0.0027883598 -0.029192692
0.018837426 0.0024233009 -0.029234469
0.022139492 0.0022740653 -0.026810274
-0.021701787 0.0073159523 -0.026264902
-0.017988946 0.0075133881 -0.028879574
0.018139753 0.0077414066 -0.02871657
0.021508303 0.0072623794 -0.026443308
-0.020638326 0.011735735 -0.025529426
-0.017591486 0.012503835 -0.027334269
-0.013006631 0.013593828 -0.029361615
-0.0099851033 0.014762932 -0.029981986
0.013330224 0.013430406 -0.029294999
0.017541124 0.012423514 -0.027401684
0.020867659 0.01148873 -0.025464844
-0.016608953 0.016322386 -0.025953379
-0.012383995 0.017302768 -0.027563028
-0.0077350852 0.017883888 -0.02887639
-0.0024617754 0.018853551 -0.029221058
0.0027553956 0.0187314 -0.02927359
0.0078308964 0.017961141 -0.028809166
0.012504916 0.017569352 -0.027338482
0.016575241 0.016397087 -0.025927791
-0.01163246 0.020765299 -0.025510808
-0.0072248289 0.021622356 -0.026357679
-0.0025083851 0.022178797 -0.026746901
0.002292071 0.022170134 -0.026774792
0.0072019729 0.021621589 -0.026375705
0.011187287 0.02062575 -0.025806637
-0.011261114 -0.025681354 -0.020728026
-0.0073787877 -0.026218323 -0.021740843
-0.0025729032 -0.026891487 -0.021999188
0.0024256525 -0.026749192 -0.022158619
0.0071752458 -0.026295066 -0.021712905
0.011393877 -0.025626453 -0.02070892
-0.020031078 -0.020116955 -0.020198969
-0.016897598 -0.021359146 -0.021499
-0.012808236 -0.023024209 -0.022794604
-0.0081471615 -0.023995575 -0.02394936
-0.0033198844 -0.024539623 -0.024564898
0.0026042205 -0.024644429 -0.024541778
0.0079874825 -0.024009885 -0.023997357
0.012780113 -0.023018805 -0.02280605
0.016791014 -0.021549527 -0.021596326
-0.021563711 -0.01669267 -0.021662535
-0.018248824 -0.018100524 -0.023509189
-0.014697474 -0.019733399 -0.024703952
0.014841483 -0.019428829 -0.024848165
0.018269287 -0.01811018 -0.023483314
0.021447742 -0.01700836 -0.021527519
-0.025652323 -0.011250961 -0.020794904
-0.02295327 -0.01267141 -0.022936374
-0.019755855 -0.014648731 -0.024795756
0.019721415 -0.014700329 -0.024790784
0.022936825 -0.01269088 -0.022885339
0.025607862 -0.011372343 -0.020781536
-0.02630634 -0.0072396132 -0.021688867
-0.023686435 -0.0078525227 -0.024096914
0.024058539 -0.007793956 -0.024006611
0.026302941 -0.007156841 -0.021725936
-0.026865639 -0.0025303112 -0.02203968
-0.024623839 -0.0025894928 -0.024561835
0.024633167 -0.0026436197 -0.024546983
0.026703492 -0.0023741648 -0.022245336
-0.026367128 0.0023200382 -0.022270318
-0.02460061 0.0025173435 -0.024595451
0.024549769 0.0025246223 -0.024646634
0.026741697 0.0024499558 -0.022197466
-0.026269849 0.0072567579 -0.021739002
-0.024045872 0.0077187046 -0.024051871
0.024002276 0.0078764325 -0.024042776
0.026365215 0.0073111341 -0.021582514
-0.025628589 0.011284149 -0.020810563
-0.022935534 0.012695336 -0.022942666
-0.019780643 0.014580697 -0.024816826
0.019783122 0.014432646 -0.024897968
0.022933334 0.012624932 -0.02298156
0.025583407 0.011529337 -0.02073168
-0.02151903 0.016874839 -0.021568924
-0.018259628 0.01817481 -0.02342199
-0.01475649 0.019617552 -0.024756132
0.014480853 0.019632066 -0.024918707
0.018106936 0.018113129 -0.023590626
0.021502122 0.016809249 -0.021633552
-0.016894059 0.02157375 -0.021502439
-0.012769163 0.022941826 -0.022887632
-0.0078350296 0.024026047 -0.024029819
-0.0027463196 0.024658425 -0.024511635
0.0027332674 0.024610033 -0.024560705
0.0082080606 0.02388012 -0.024044732
0.012755738 0.022795931 -0.023051765
0.016921956 0.021545786 -0.021496894
-0.011359385 0.025588198 -0.02077749
-0.0074627153 0.026264349 -0.021652428
-0.0025410892 0.026778487 -0.022148831
0.0023926808 0.02646604 -0.022231579
0.0071598594 0.026417578 -0.021567535
0.011518986 0.025498597 -0.020802982
-0.0066491333 -0.030411633 -0.015761083
-0.0023549767 -0.030700002 -0.016355976
0.0024903165 -0.030730944 -0.016279541
0.0064653158 -0.030475041 -0.015714567
-0.016169935 -0.026073532 -0.016576778
-0.012436441 -0.027335277 -0.017616147
-0.0079530347 -0.028718602 -0.018054672
-0.0024738531 -0.029269705 -0.018777415
0.0030688799 -0.029230526 -0.018748431
0.0077199875 -0.028811462 -0.018012285
0.012505523 -0.027283635 -0.017653324
0.016556539 -0.025992116 -0.016336164
-0.020982275 -0.021431478 -0.016953828
-0.017918678 -0.023377443 -0.018132953
-0.014987482 -0.024983685 -0.019216355
0.014798113 -0.024744743 -0.019708171
0.017971389 -0.023470851 -0.018200547
0.021548033 -0.021546291 -0.016854262
-0.025885461 -0.016323268 -0.016733048
-0.023570508 -0.018052652 -0.018086269
0.023672288 -0.018001813 -0.018112862
0.025619924 -0.016022736 -0.016431311
-0.027453367 -0.01239555 -0.017459046
-0.024802802 -0.014651619 -0.019642754
0.024789162 -0.014748729 -0.019581083
0.027226981 -0.01250588 -0.017696682
-0.030394927 -0.0067857206 -0.015637992
-0.028864605 -0.0077525415 -0.017903188
0.028821053 -0.0078561716 -0.017906707
0.030399913 -0.006432035 -0.015774226
-0.030758692 -0.0024486487 -0.016169127
-0.029288223 -0.0028377878 -0.018699301
0.029276725 -0.0024074819 -0.018770082
0.03019001 -0.0021805747 -0.016353367
-0.030694678 0.0025377804 -0.016278977
-0.029231986 0.002616303 -0.018820841
0.029238664 0.002628451 -0.018811513
0.030660843 0.0023837588 -0.0163645
-0.030339109 0.0065873344 -0.01584027
-0.028912116 0.0076775132 -0.017867969
0.028794197 0.0080162305 -0.017888052
0.030416645 0.0064959163 -0.015724625
-0.027388634 0.0125656 -0.017437469
-0.024718884 0.014801471 -0.019629072
0.024815327 0.014683771 -0.019600255
0.027459173 0.012539062 -0.017355369
-0.026076039 0.01643884 -0.016296288
-0.023437295 0.018275483 -0.01813986
0.023577448 0.018027054 -0.018221067
0.026154375 0.016328258 -0.016306633
-0.021502187 0.021651534 -0.016787382
-0.018020762 0.02338477 -0.018261379
-0.014694827 0.024836255 -0.019661231
0.014981044 0.024598811 -0.019768368
0.017943162 0.023536066 -0.018067606
0.021337878 0.021220688 -0.016955744
-0.016372075 0.026017904 -0.016469572
-0.012435031 0.027235538 -0.017685646
-0.0077155782 0.028791562 -0.018041003
-0.0028755397 0.028845364 -0.018738372
0.0027992697 0.029232707 -0.018785721
0.0079482533 0.028497938 -0.018200247
0.012332657 0.027159676 -0.017588815
0.016629471 0.025916871 -0.016367765
-0.0068217195 0.030355221 -0.015797477
-0.0024919277 0.030688833 -0.016365008
0.0022592889 0.030632017 -0.016462475
0.0062219729 0.03045385 -0.015852062
-0.011827048 -0.030572644 -0.01183323
-0.0075788908 -0.031579055 -0.012616619
-0.0026929141 -0.032382019 -0.012570564
0.0026442695 -0.032420348 -0.012498692
0.0075886548 -0.031679861 -0.012358676
0.011412892 -0.030019425 -0.01192632
-0.020614497 -0.025763841 -0.011321827
-0.017523674 -0.027112434 -0.012520928
-0.01347793 -0.029304301 -0.013274568
0.013568846 -0.029241735 -0.01329641
0.01763179 -0.027241735 -0.012612903
0.020842904 -0.025640534 -0.011171753
-0.025505329 -0.020697374 -0.011677151
-0.022972239 -0.022806013 -0.012840981
-0.01963545 -0.02482402 -0.014626907
0.019706743 -0.024654076 -0.014809206
0.022635311 -0.022452388 -0.012783691
0.025477389 -0.020796502 -0.011579069
-0.027613746 -0.017227381 -0.012391923
-0.024754476 -0.019795502 -0.014672361
0.024764504 -0.019953094 -0.014458727
0.027353022 -0.017599385 -0.012458871
-0.030719308 -0.011706037 -0.011573063
-0.028887795 -0.013501857 -0.013529294
0.029290671 -0.013436345 -0.013333891
0.030614272 -0.011686286 -0.011872545
-0.03133186 -0.0076703695 -0.012605703
0.031624451 -0.0074952818 -0.012509836
-0.032110367 -0.0025134357 -0.012654665
0.032433387 -0.0021953485 -0.012480035
-0.032378726 0.0023897453 -0.012457521
0.032100901 0.002506413 -0.012602312
-0.031602636 0.007552078 -0.012538343
-0.029991671 0.009670889 -0.014966208
0.031540364 0.0076119583 -0.012675685
-0.030622559 0.011664407 -0.011878464
-0.029378878 0.013407115 -0.013155066
0.029340724 0.013186152 -0.013432192
0.030644123 0.011686437 -0.011791735
-0.027399512 0.017440798 -0.012566525
-0.02477302 0.019811912 -0.014619201
0.024718866 0.019811112 -0.014715847
0.027216457 0.017391576 -0.012702311
-0.025590383 0.020841625 -0.011248051
-0.022793477 0.022853026 -0.012775002
-0.013347402 0.014743817 -0.0159282
0.017966352 0.020405971 -0.018858695
0.022609318 0.022751031 -0.012772586
0.025624787 0.020795934 -0.011262929
-0.02078717 0.025549902 -0.011494987
-0.017454393 0.027484229 -0.012359423
-0.013378913 0.029183106 -0.013610194
-0.0099027744 0.029974088 -0.014982387
0.013465247 0.029210776 -0.013466161
0.01747651 0.027443735 -0.01241783
0.02083455 0.025727827 -0.010999107
-0.011659296 0.030681496 -0.011709308
-0.0074096601 0.031663746 -0.012494974
-0.0026497936 0.032171868 -0.012587948
0.0024046411 0.032531437 -0.012241774
0.0073715937 0.031643849 -0.012574513
0.011552596 0.030643305 -0.011926007
-0.015926057 -0.02980452 -0.0071851742
-0.012559639 -0.031593405 -0.0075760116
-0.0075131464 -0.033178624 -0.0075365682
-0.0026405102 -0.033776872 -0.007586055
0.0026341204 -0.033566456 -0.0077709914
0.0074620536 -0.033234101 -0.0073330821
0.012578646 -0.031506512 -0.007739387
0.015871527 -0.030396629 -0.006220337
-0.021593958 -0.026338428 -0.0073997835
-0.018147253 -0.028677635 -0.0078679491
0.014889733 -0.029940093 -0.0099241668
0.018029369 -0.028713612 -0.0079808291
0.021673508 -0.026257642 -0.0074322852
-0.026307745 -0.021641251 -0.0073274043
-0.024004612 -0.024024121 -0.0078912899
0.024074603 -0.023968725 -0.0078748539
0.026361274 -0.021617724 -0.0072331713
-0.03044568 -0.01565991 -0.0067195282
-0.028522741 -0.017969031 -0.0077765374
0.028719919 -0.017802885 -0.0080966176
0.030392246 -0.015836846 -0.0065657278
-0.031364996 -0.012337259 -0.007566289
0.031626225 -0.012622441 -0.0073511684
-0.032985341 -0.0074718068 -0.0074125431
0.033181302 -0.0076052188 -0.007386825
-0.033906989 -0.0024819146 -0.0075502233
0.033983238 -0.0025253494 -0.0071991924
-0.033894394 0.0025802103 -0.0075859055
0.033932261 0.0023928829 -0.0074513536
-0.032719646 0.0072467849 -0.0073934062
0.033198811 0.007330812 -0.0076153101
-0.031190682 0.01237609 -0.007599805
0.031526674 0.01263653 -0.0075670076
-0.030485582 0.015599228 -0.0066631087
-0.028531907 0.018163823 -0.0079402067
0.02873683 0.018050173 -0.0078922715
0.03033955 0.015864167 -0.0067479457
-0.026378693 0.021570496 -0.0073164352
-0.023771929 0.023650831 -0.0082883229
0.023897409 0.023411367 -0.0079783164
0.025834352 0.021756923 -0.0073753432
-0.021755071 0.026252294 -0.0072888662
-0.017873129 0.02835191 -0.0081306817
0.018070262 0.028781055 -0.0076766335
0.021259418 0.02607381 -0.0071849427
-0.015710108 0.030438889 -0.0064032846
-0.012514188 0.031613152 -0.0075527662
-0.0074932557 0.03317247 -0.0075876038
-0.0024867598 0.033957765 -0.0074065621
0.0024812035 0.033936214 -0.0074931616
0.0075376299 0.032797173 -0.0073545403
0.012489712 0.03135968 -0.0077549685
0.015812501 0.030335695 -0.0066871303
-0.016355995 -0.030659482 -0.0023728614
-0.012383876 -0.03230023 -0.002495938
-0.0073735104 -0.033343103 -0.0029209359
-0.0024091646 -0.034311756 -0.0028469844
0.0026343942 -0.034239165 -0.0026216616
0.0074823741 -0.033871509 -0.0026833394
0.012349325 -0.032458294 -0.0025032386
0.016209884 -0.030630244 -0.0026937427
-0.022069987 -0.026845263 -0.0024696009
-0.018631004 -0.02858049 -0.0029600216
0.018360127 -0.029192312 -0.0025702154
0.0220387 -0.026870895 -0.0024161388
-0.026803089 -0.022110239 -0.0025572916
-0.023991589 -0.024472695 -0.003374066
0.024676254 -0.024459228 -0.0030676583
0.026785774 -0.022160284 -0.0023750407
-0.03053694 -0.016100405 -0.0026534791
-0.029250123 -0.01876997 -0.0027233623
0.02928631 -0.018755712 -0.0025017085
0.030659504 -0.01629469 -0.0026213289
-0.031976953 -0.012590954 -0.0027324548
0.032260291 -0.012723277 -0.0026313886
-0.033446047 -0.007230991 -0.0025528914
0.03376234 -0.007655147 -0.0026808642
-0.034664355 -0.002351793 -0.0025904656
0.034667674 -0.0025037515 -0.002394994
-0.034333214 0.0021495293 -0.0024758235
0.034650896 0.0026112515 -0.0026365861
-0.033935551 0.0074671931 -0.0026104283
0.033689704 0.0075730593 -0.0025717577
-0.032365575 0.012638252 -0.0026307476
0.031985272 0.012509139 -0.0027656585
-0.030609231 0.016348289 -0.0025401327
-0.029194543 0.018848309 -0.0027682402
0.028584084 0.018644646 -0.0029483302
0.030705474 0.016327685 -0.0025199221
-0.02658169 0.022163924 -0.0026211294
-0.0245828 0.024605222 -0.0025680696
0.024425395 0.023754675 -0.0041608969
0.026437322 0.021885106 -0.0026986015
-0.022255762 0.026689939 -0.0023797606
-0.018573888 0.028728902 -0.0029554979
0.018863145 0.029026629 -0.0029669579
0.021934681 0.026596108 -0.0025158955
-0.016000465 0.030558296 -0.0026841455
-0.012303642 0.032156643 -0.0026104287
-0.0074736224 0.033921145 -0.0025476974
-0.0023809576 0.034660123 -0.0027700376
0.0025479749 0.034666076 -0.0024162754
0.0073186625 0.033961579 -0.0024481695
0.012457709 0.032420453 -0.0024874618
0.016161429 0.030173557 -0.0026329798
-0.016148811 -0.030723253 0.002694774
-0.012548984 -0.032388236 0.0024353261
-0.0075345621 -0.033497564 0.0023059128
-0.0025442527 -0.034656253 0.0025765856
0.0033791224 -0.033510745 0.0019651575
0.0073501207 -0.033500943 0.0024058304
0.012341565 -0.032111272 0.0023343991
0.016283406 -0.030688461 0.00254833
-0.022210922 -0.026732067 0.0024290357
-0.018766819 -0.029260201 0.0025876458
0.018866355 -0.029196624 0.002647049
0.022200083 -0.026750237 0.0022882323
-0.026439462 -0.021775579 0.0021377597
-0.024697406 -0.024554208 0.0020626509
0.024524257 -0.024647634 0.0027161699
0.026869329 -0.022031199 0.0025053835
-0.030347707 -0.016097654 0.0021327513
-0.029236738 -0.018814517 0.0026199853
0.029214635 -0.018829685 0.0026916047
0.030372592 -0.016529262 0.0021775961
-0.032276329 -0.012283662 0.0021890241
0.032446768 -0.012475256 0.0023702634
-0.033950239 -0.0074053914 0.0025938598
0.03394267 -0.007461777 0.0026018841
-0.034229465 -0.0025983327 0.0022277858
0.034336396 -0.0026018489 0.0024110435
-0.034623507 0.0027981887 0.0023582799
0.034666434 0.0025387511 0.0024490079
-0.033887871 0.0076985448 0.0025584379
0.033885058 0.0072611175 0.0024785949
-0.032116424 0.012243763 0.0022951297
0.03238875 0.012661895 0.0021434461
-0.030697394 0.016380651 0.0021904255
-0.029171461 0.0189206 0.0025052039
0.028526837 0.018403675 0.0023831811
0.030134093 0.015856238 0.0025174229
-0.026851695 0.022051565 0.0025600474
-0.024620896 0.024519075 0.0030195895
0.023704277 0.024515636 0.0018953923
0.026861178 0.022076096 0.0023775196
-0.022205696 0.026742021 0.0023354625
-0.017964318 0.028870428 0.0024500759
0.018752852 0.028664501 0.0021152354
0.02197819 0.026923832 0.0022831452
-0.016348286 0.030664766 0.0024893188
-0.012357744 0.032166921 0.0023554801
-0.0075156763 0.033593323 0.0024417827
-0.0025423777 0.034516227 0.0024535854
0.002642161 0.034644186 0.0026148926
0.0075870911 0.033574037 0.0025306521
0.012743852 0.032038864 0.0024117117
0.016401803 0.030643538 0.0023413477
-0.015849462 -0.030317327 0.0066452725
-0.012477911 -0.031639304 0.0074963234
-0.0074963891 -0.033209883 0.0074015236
-0.0024420873 -0.033795487 0.0072403378
0.0026697987 -0.033892397 0.0073528294
0.0075452663 -0.032790028 0.0075344439
0.012350102 -0.031690042 0.007501055
0.015616403 -0.030449715 0.0065782545
-0.021327205 -0.026405927 0.007229663
-0.018042106 -0.028785445 0.0077352603
-0.014966266 -0.029907864 0.0099069551
0.018162338 -0.028713992 0.0077234432
0.021556679 -0.025998266 0.0071887597
-0.025870506 -0.021445027 0.0072147287
-0.023961062 -0.024080414 0.0078879436
0.024020303 -0.024015855 0.0079036457
0.026318926 -0.021609936 0.0073869457
-0.030417267 -0.015765505 0.0065984167
-0.028948748 -0.017838195 0.0076052463
0.028659606 -0.018001789 0.0077352417
0.030395044 -0.015731158 0.0067983526
-0.031337213 -0.012622419 0.0073177014
0.031159716 -0.012505483 0.0072070691
-0.033142235 -0.0076952102 0.0074851597
0.033223052 -0.0075228661 0.007294632
-0.033909082 -0.0025117949 0.0075530065
0.033122085 -0.0028278851 0.0074200467
-0.033857979 0.0023860149 0.0078066909
0.033896714 0.0025148012 0.007582136
-0.032787062 0.0073781568 0.0072205411
0.033172321 0.0074852225 0.007570494
-0.031718981 0.012284984 0.0075253081
0.031398837 0.012142168 0.0075926483
-0.029759083 0.015871704 0.0061929128
-0.028271595 0.017688857 0.0074170195
0.028868724 0.017950024 0.0076647443
0.030507546 0.015622601 0.006477369
-0.026088776 0.021247055 0.0071315682
-0.024145333 0.024008624 0.007546592
0.022956075 0.023343019 0.0074146171
0.026271725 0.021176243 0.0072676567
-0.021630287 0.026288362 0.0074859536
-0.018022461 0.028741077 0.0079354458
0.018250227 0.02845929 0.00769787
0.021580772 0.026368177 0.0073535452
-0.015319495 0.029570449 0.0053670215
-0.012364738 0.031659659 0.0072501246
-0.0077627078 0.032817762 0.0072257346
-0.002644609 0.033667028 0.0073369928
0.0024455651 0.033970606 0.0073584099
0.00747409 0.033191666 0.007499089
0.01253602 0.031674355 0.0072554555
0.015699625 0.030448014 0.0063715219
-0.012052294 -0.030203028 0.011210009
-0.0070801224 -0.031219622 0.012006476
-0.0024445297 -0.032411654 0.012539967
0.0025754177 -0.032351978 0.012648139
0.0074166306 -0.03167868 0.012245597
0.011597628 -0.030718502 0.011678736
-0.020943116 -0.0254746 0.01138906
-0.017553026 -0.026949042 0.012485082
-0.013549181 -0.028932702 0.012994504
0.013398388 -0.02913663 0.01291138
0.017420283 -0.027461352 0.012464195
0.020788647 -0.025636068 0.011307782
-0.025544785 -0.020818112 0.011381174
-0.022926161 -0.022849485 0.012866302
-0.019716421 -0.024762817 0.014624883
0.019550173 -0.024888573 0.014628882
0.022937842 -0.02293355 0.012716789
0.025511509 -0.020867409 0.011381656
-0.026997246 -0.017498264 0.012230408
-0.024859712 -0.019618269 0.014706809
0.024834853 -0.019609336 0.014761826
0.027443981 -0.017529838 0.012366391
-0.030633966 -0.011806863 0.011693047
-0.029355902 -0.01338488 0.013237402
0.029321557 -0.013446338 0.013243831
0.030477859 -0.01194968 0.01148037
-0.030481372 -0.0071110544 0.011747391
-0.02991971 -0.0098802298 0.014961549
0.029966522 -0.0097979251 0.014926411
0.031623539 -0.0074706944 0.012555181
-0.032088187 -0.0023578282 0.012171275
0.031933017 -0.0027306806 0.012482561
-0.032197289 0.0025043183 0.012180212
0.032356087 0.0024682435 0.012628645
-0.031610493 0.007556506 0.012511283
0.031524207 0.0074238307 0.012425972
-0.03077247 0.011440787 0.011714928
-0.029234575 0.012992255 0.012938844
0.029024497 0.01301882 0.012832928
0.030608391 0.011785224 0.011784703
-0.027106423 0.017638145 0.012477463
-0.024836112 0.019693118 0.014655439
0.02490725 0.019794848 0.014399452
0.027273322 0.017370336 0.012104775
-0.025646403 0.020708917 0.011350468
-0.022752218 0.022987729 0.012910329
-0.019831426 0.024589634 0.014758827
0.019715015 0.024884466 0.014433652
0.022756755 0.023007687 0.012582676
0.025537882 0.020738218 0.010980896
-0.020855885 0.025584802 0.01126135
-0.017402228 0.026673729 0.012209157
-0.013121724 0.029358504 0.013484836
-0.0099883247 0.029945286 0.014971216
0.0099637881 0.029959612 0.014963116
0.013317472 0.029295355 0.013460547
0.017603403 0.02698262 0.012458061
0.020774338 0.02566833 0.011243075
-0.011883285 0.030641753 0.01159626
-0.0074806549 0.031157952 0.012571206
-0.0028024623 0.03207184 0.012304179
0.0023183979 0.032281887 0.012393446
0.0075228717 0.031409051 0.012193854
0.011363807 0.030008217 0.01172174
-0.0070793675 -0.030350184 0.015702708
-0.0021755777 -0.030711941 0.01636097
0.0025101528 -0.030644236 0.016441464
0.0064905132 -0.030465947 0.01571792
-0.015969876 -0.025774812 0.015884247
-0.012460437 -0.027443502 0.017452592
-0.0074761622 -0.028421009 0.017980145
-0.0028344919 -0.029250266 0.018753918
0.0025819014 -0.02919976 0.018870611
0.0075878431 -0.028383469 0.017811527
0.012254243 -0.027287673 0.017213494
0.016372973 -0.025992543 0.016513821
-0.021291619 -0.021118926 0.016655128
-0.017934898 -0.023466736 0.018273063
-0.014514403 -0.024799822 0.019858133
0.014880164 -0.02467839 0.019736445
0.018166687 -0.023471795 0.017766317
0.021308364 -0.021265948 0.016349491
-0.025419733 -0.016292503 0.016367912
-0.023562681 -0.018186739 0.018076478
0.023515753 -0.017781891 0.017725324
0.025553517 -0.01592798 0.016284415
-0.027318258 -0.012399087 0.017200911
-0.024785466 -0.014786817 0.019554755
0.024721298 -0.01466605 0.019736594
0.027074214 -0.012284178 0.017025823
-0.030365905 -0.0067147692 0.015723063
-0.02878901 -0.0077161375 0.018035768
0.028618576 -0.0075103585 0.017690239
0.030372865 -0.0064482419 0.01582332
-0.030718267 -0.002406542 0.01624888
-0.029335819 -0.0025586514 0.018664969
0.028355209 -0.0024522517 0.017600829
0.03066843 -0.0023499872 0.016351622
-0.030582123 0.0028076756 0.016130231
-0.029272197 0.0025330354 0.018764943
0.029293068 0.0025012512 0.018739499
0.030714115 0.0023541257 0.016267432
-0.030273639 0.0067788693 0.015878586
-0.028483408 0.0078700911 0.01796505
0.028824309 0.0075087151 0.017796198
0.03039166 0.0069206543 0.015575669
-0.026911872 0.012446763 0.017241407
-0.024668846 0.014755535 0.019731458
0.024694957 0.014787206 0.019671738
0.0273734 0.012328548 0.017413931
-0.025748925 0.016542563 0.015972979
-0.023379311 0.017865248 0.018149264
0.023516268 0.018109329 0.01821273
0.025978034 0.01613846 0.016086591
-0.021656189 0.021448204 0.01685336
-0.017801018 0.023405597 0.017531723
-0.014564942 0.024749428 0.019889073
0.01469334 0.024701312 0.019853711
0.018170401 0.023138134 0.017811297
0.021561718 0.021410668 0.0169363
-0.016245989 0.025422748 0.015957125
-0.012156041 0.027154589 0.017492685
-0.0075178714 0.02850287 0.018086014
-0.002405249 0.029278308 0.018778287
0.0027474521 0.029206408 0.018834712
0.0076285629 0.028724942 0.018187612
0.01252352 0.027077854 0.017330382
0.016445205 0.025589937 0.016451754
-0.0067637158 0.030416667 0.015698923
-0.0023994474 0.030653469 0.016450243
0.0024877433 0.03068033 0.016376039
0.0071301023 0.03033068 0.015721858
-0.01164567 -0.025555437 0.019671049
-0.0071732663 -0.025950775 0.021311915
-0.0022266388 -0.026682816 0.022113588
0.0024932225 -0.026884899 0.022016643
0.0071109547 -0.026430568 0.021571886
0.011307559 -0.02557602 0.020829286
-0.020010497 -0.020176459 0.020160045
-0.016830966 -0.021300603 0.021447275
-0.012949721 -0.02248048 0.022637028
-0.0077240169 -0.023417365 0.023487702
-0.0032445821 -0.024539234 0.024569944
0.0029935066 -0.024555814 0.024581987
0.0077479854 -0.02339218 0.023686187
0.012727231 -0.023017127 0.022838613
0.016838316 -0.02153256 0.021589682
0.02008483 -0.020000124 0.020262048
-0.02140343 -0.017057642 0.021534121
-0.018046226 -0.017990069 0.022818344
-0.014537829 -0.019643573 0.024873909
0.014704967 -0.019547515 0.024842655
0.018358083 -0.017864365 0.023278764
0.021617448 -0.016904211 0.02145434
-0.025579015 -0.011176557 0.020919459
-0.022926008 -0.012856628 0.02282515
-0.019759791 -0.014507061 0.024873191
0.019902244 -0.014875643 0.024564259
0.022924431 -0.012908286 0.022830036
0.025619855 -0.011537891 0.020678569
-0.025743557 -0.0072079506 0.020966733
-0.023976941 -0.0074549327 0.023832696
0.024028115 -0.0080059664 0.023970371
0.026134236 -0.0071654017 0.021267155
-0.026691979 -0.0023533511 0.022262262
-0.024507882 -0.0027655151 0.024660634
0.024600707 -0.0024313354 0.024605364
0.026599498 -0.0026479035 0.021900725
-0.026926011 0.0022576652 0.021770304
-0.023214784 0.0031594911 0.024178719
0.024641225 0.0029693544 0.024501372
0.026765419 0.0023860473 0.022175284
-0.026293108 0.0072112032 0.021713218
-0.024134243 0.0077049918 0.023961537
0.02397502 0.0077369474 0.024112515
0.025935568 0.0070433575 0.021315636
-0.02566999 0.011583411 0.020588398
-0.022273824 0.012664864 0.02195802
-0.019370001 0.014778569 0.024993824
0.019752799 0.014605818 0.024822202
0.022716114 0.012681553 0.022492506
0.025618529 0.011262842 0.020827582
-0.021408586 0.016968017 0.021608129
-0.017863341 0.018140569 0.022817621
-0.014891113 0.019666556 0.024633447
0.014514415 0.019586012 0.024933085
0.018074609 0.017619709 0.023519158
0.021630496 0.016804263 0.021518406
-0.017051898 0.021565448 0.021377036
-0.01271855 0.022705238 0.022042274
-0.0082278885 0.023987515 0.023933485
-0.0030506235 0.024622377 0.024513967
0.0029391206 0.023860244 0.023126626
0.0077340077 0.024197213 0.02339229
0.01232861 0.022121036 0.022843763
0.016650749 0.02124076 0.021195672
-0.011531964 0.025604052 0.020662613
-0.0070213173 0.026145669 0.021487409
-0.002508689 0.026785614 0.022143546
0.002373016 0.026410038 0.021805223
0.0073284744 0.026331659 0.021442629
0.0114726 0.025565673 0.02075384
-0.010996693 -0.020834208 0.025723714
-0.007370411 -0.021565722 0.026374443
-0.0024711378 -0.021992642 0.026396185
0.0023937684 -0.022073571 0.026847012
0.0068546832 -0.021529099 0.026072161
0.010505407 -0.02014311 0.025272476
-0.016195972 -0.016022075 0.025721798
-0.012350938 -0.017392932 0.02749823
-0.0079067498 -0.017841404 0.028425973
-0.002307008 -0.017976565 0.028567309
0.0029805878 -0.018457148 0.029213006
0.0080670081 -0.017522339 0.028201738
0.012497954 -0.017316885 0.027173473
0.01644806 -0.01645229 0.02595564
-0.02078242 -0.011319554 0.025605321
-0.017539125 -0.01266705 0.026904002
-0.013280913 -0.012922816 0.028766438
0.013272705 -0.012330754 0.028355675
0.016982671 -0.012149028 0.027332341
0.019978741 -0.010650917 0.02567072
-0.021498479 -0.0070752092 0.026207166
-0.017782344 -0.0073639164 0.028253954
0.017628971 -0.0074998871 0.028452406
0.021558886 -0.0074056536 0.026360506
-0.022158578 -0.0025239657 0.02677159
-0.018734422 -0.0024388107 0.028673347
0.018794723 -0.0027400022 0.029235728
0.021766677 -0.0025812779 0.026284004
-0.021280212 0.0025900824 0.026173336
-0.018469093 0.0031120505 0.028349334
0.018525796 0.0024797397 0.029240187
0.022145256 0.0018755321 0.026412403
-0.021548752 0.0071588145 0.026432995
-0.01769118 0.0076066456 0.02861109
0.017999703 0.0076597179 0.028301567
0.020386849 0.0073372233 0.025351124
-0.020890893 0.010650518 0.024805417
-0.017055772 0.012614382 0.027051203
-0.013202381 0.013188758 0.02926854
-0.009765178 0.014929241 0.029976726
0.013634085 0.013194093 0.029253906
0.017506182 0.012393635 0.027071262
0.020776639 0.0113633 0.025577687
-0.0162756 0.016831283 0.025827806
-0.012526183 0.017555807 0.027341895
-0.0074623432 0.018063001 0.028838936
-0.0027215206 0.018817177 0.029221136
0.0024620914 0.018853847 0.029222988
0.0078464877 0.018134125 0.028227055
0.012401109 0.017409397 0.027046429
0.016261168 0.015863653 0.026067642
-0.010363585 0.019767687 0.024693724
-0.0069612367 0.020537274 0.02541931
-0.0024333468 0.021909518 0.026536364
0.0024624143 0.022211857 0.026711285
0.0071349218 0.021403242 0.026223028
0.011440875 0.020800786 0.025565458
-0.0070516714 -0.014788259 0.030364389
-0.0022266079 -0.016305849 0.030700013
0.0025139691 -0.016233463 0.030587576
0.0066272398 -0.015687229 0.030406591
-0.011662561 -0.012011713 0.030568667
-0.0071697305 -0.012411366 0.031074038
-0.0026386622 -0.012432618 0.032415908
0.002340636 -0.012297406 0.032163464
0.007323768 -0.012226205 0.031160818
0.011465457 -0.011537441 0.029919874
-0.015794294 -0.0067696022 0.030369209
-0.012707119 -0.0078637097 0.030862438
-0.007630616 -0.0076690894 0.033122145
-0.0024082528 -0.007730823 0.032911185
0.0024928616 -0.0075373929 0.033643093
0.0077939029 -0.0075132288 0.032516208
0.012524332 -0.0075023449 0.03127813
0.015859365 -0.0065775509 0.030378066
-0.016406966 -0.0023919917 0.030667689
-0.012298155 -0.0022930515 0.03152699
-0.0072911293 -0.0024223726 0.033858318
-0.0023366814 -0.002402612 0.034679111
0.0025453966 -0.0027420977 0.034579072
0.0077395509 -0.0024587663 0.033240534
0.012587508 -0.0028247512 0.032095701
0.015863439 -0.0028651739 0.030274244
-0.016423903 0.0025255813 0.030652676
-0.012480131 0.0026398792 0.032422319
-0.0073911408 0.002418566 0.033967778
-0.0022062315 0.0025346417 0.034266815
0.0026445889 0.0027770747 0.034204956
0.0075905179 0.0027509825 0.033898856
0.012611085 0.0024625307 0.032389112
0.016345486 0.0023949386 0.030704685
-0.015514513 0.0074130273 0.029585287
-0.012498089 0.0075606527 0.031632617
-0.0068115899 0.0074529923 0.03266681
-0.0023073857 0.0078307772 0.033530358
0.0024044304 0.0075803022 0.033620697
0.007373502 0.0075334539 0.032911774
0.012368895 0.0074459231 0.031699501
0.016339513 0.0063955667 0.02907248
-0.011857047 0.011453305 0.030711902
-0.0072954353 0.012117631 0.031535696
-0.0024352791 0.012386923 0.032445304
0.0023990523 0.012569335 0.032385025
0.0076062223 0.012392347 0.031564001
0.011870014 0.011395182 0.030720878
-0.0064929659 0.015805824 0.030373955
-0.0024813314 0.0163063 0.030282494
0.0023458179 0.016441433 0.030597659
0.0062506436 0.01580219 0.030428793
