# .PCD v0.7 - Point Cloud Data file format
VERSION 0.7
FIELDS x y z
SIZE 4 4 4
TYPE F F F
COUNT 1 1 1
WIDTH 1266
HEIGHT 1
VIEWPOINT 0 0 0 1 0 0 0
POINTS 1266
DATA ascii
0.012222747 -0.0027512268 -0.046210703
0.015604153 -0.0023778516 -0.045184813
-0.015494307 0.0021402775 -0.04521814
-0.012447675 0.0023615533 -0.046108559
-0.007520427 0.0024273889 -0.047250561
-0.0023592992 0.0023738046 -0.047767702
0.002662671 0.0026629739 -0.047737822
0.0074383947 0.002717254 -0.047258265
0.012468106 0.0026433528 -0.046136256
0.015563965 0.0025306561 -0.045197017
-0.01569337 0.0077499282 -0.045157745
-0.012542649 0.0075103249 -0.04611364
-0.0076917233 0.0078129107 -0.047230773
-0.0026488956 0.0074739414 -0.047739197
0.0024049622 0.0075080823 -0.047763206
0.007498248 0.0074222088 -0.04725679
0.012565391 0.0073638796 -0.046106737
0.015553656 0.007145036 -0.045200139
-0.015621654 0.012216331 -0.045179516
-0.012448594 0.012421914 -0.046142176
-0.0075560762 0.012430034 -0.047245372
-0.0025175423 0.01255266 -0.047752116
0.0026902156 0.012538981 -0.047735117
0.0075561577 0.012373379 -0.047248505
0.012732294 0.012559852 -0.046056107
0.015821166 0.012764618 -0.04511898
-0.015722184 0.01718541 -0.045149013
-0.012331231 0.01734193 -0.046177782
-0.0073097623 0.017423762 -0.047273111
-0.0026937374 0.017573308 -0.047734771
0.0026015125 0.017717717 -0.047743838
0.0072580939 0.017538751 -0.047283962
0.012072308 0.017522354 -0.046256337
0.015649781 0.017504778 -0.045170978
-0.015570313 0.02227594 -0.045183625
-0.012318245 0.022472667 -0.046023317
-0.0076026409 0.023018135 -0.046836279
-0.0024441304 0.022995051 -0.047219783
0.0025415646 0.023050597 -0.047199514
0.0077094533 0.02310694 -0.046833668
0.012504188 0.022442086 -0.046027523
0.015635785 0.022099987 -0.045175225
-0.025514102 -0.021971699 -0.040457666
-0.02203696 -0.022823174 -0.041952509
-0.017605044 -0.02322069 -0.043330889
-0.012355424 -0.024500001 -0.042474881
-0.00763012 -0.024500011 -0.042562291
-0.0024071175 -0.024500003 -0.042339515
0.0022745389 -0.024500009 -0.04268723
0.0076121483 -0.024500007 -0.042599678
0.012406891 -0.024500009 -0.042654358
0.0175383 -0.023651509 -0.043094944
0.022119064 -0.022909777 -0.042045128
0.025751369 -0.022414142 -0.040364921
-0.025708204 -0.017731652 -0.040423445
-0.022428388 -0.017480239 -0.042176392
-0.017894384 -0.017462259 -0.044422314
0.018013408 -0.017717114 -0.044370096
0.022559023 -0.01737603 -0.04210658
0.025814665 -0.017628679 -0.040366545
-0.025811767 -0.012024827 -0.040368088
-0.022547325 -0.012367888 -0.042112835
-0.018418718 -0.01271931 -0.044198211
0.017871825 -0.012044087 -0.044430874
0.022548756 -0.012601881 -0.042112064
0.025711371 -0.012276289 -0.040421754
-0.025688196 -0.0077564917 -0.040434137
-0.022522023 -0.0075900853 -0.042126358
-0.018213525 -0.0074640755 -0.04430645
0.018224442 -0.0071849078 -0.044306774
0.022501977 -0.0072286488 -0.042137053
0.02562039 -0.00749559 -0.04047038
-0.025745707 -0.0019622648 -0.0404034
-0.022692855 -0.0022879452 -0.04203504
-0.018144589 -0.0026316643 -0.044308122
0.01838162 -0.0027666667 -0.044233009
0.022447217 -0.0024941845 -0.042166334
0.025793595 -0.0027308818 -0.040377807
-0.025774386 0.0024345273 -0.040388063
-0.022701655 0.0026427684 -0.042030342
-0.018165046 0.002349043 -0.044325095
0.018441092 0.002546283 -0.044208754
0.022423852 0.0025188054 -0.042178817
0.025822178 0.0027240533 -0.040362529
-0.025814669 0.0071173781 -0.040366538
-0.022840286 0.007434295 -0.041956257
-0.018198214 0.0074943691 -0.044298291
0.018001815 0.0072551649 -0.044391759
0.022157032 0.0075019551 -0.042321432
0.025679342 0.0079887016 -0.040438872
-0.025680391 0.012821265 -0.040438317
-0.022614252 0.012651451 -0.042077057
-0.018134074 0.012560188 -0.044327978
0.018032182 0.012465039 -0.044368632
0.022413449 0.012684475 -0.04218439
0.025921265 0.012755561 -0.040309574
-0.02571886 0.017407788 -0.040417749
-0.022751614 0.017656831 -0.042003646
-0.01784783 0.017527536 -0.044441782
0.018289946 0.017634759 -0.044284984
0.022740668 0.017518995 -0.042009495
0.025633205 0.017412718 -0.040463526
-0.02568222 0.022202693 -0.040437326
-0.022188073 0.022854142 -0.041927721
-0.017962024 0.023539959 -0.042976774
-0.012425263 0.024500011 -0.04273963
-0.0073741484 0.024500009 -0.042657029
-0.0028702207 0.024500009 -0.042374
0.0028119681 0.024500011 -0.042479288
0.007528184 0.024500003 -0.042575233
0.01255957 0.024500009 -0.042328734
0.017542144 0.023654699 -0.043059282
0.022360222 0.022666967 -0.041939717
0.025678629 0.022387175 -0.04039868
-0.031215902 -0.022519551 -0.036027651
-0.027531173 -0.023570364 -0.037900545
-0.022367761 -0.024500009 -0.03773142
-0.017613061 -0.024500009 -0.037501339
-0.012595839 -0.023301629 -0.036656894
-0.0072601656 -0.023318578 -0.037771709
-0.0027769676 -0.0228444 -0.037968587
0.0023880862 -0.022788703 -0.038005654
0.0076128216 -0.023132417 -0.037586268
0.012224541 -0.023437407 -0.037061989
0.017693184 -0.024500009 -0.037394047
0.02292856 -0.024500009 -0.037685249
0.027926167 -0.023197819 -0.03782095
0.031277999 -0.022609554 -0.036042709
-0.031268742 -0.017570173 -0.036134209
-0.028231084 -0.017573494 -0.038589984
-0.012592321 -0.01759097 -0.035696816
-0.0072017992 -0.017460521 -0.037191171
-0.0023383338 -0.017109722 -0.037769739
0.0024707643 -0.017507901 -0.037756685
0.0077056317 -0.017338773 -0.037093438
0.012326808 -0.01744717 -0.035778217
0.028297285 -0.017691851 -0.038572147
0.031412605 -0.017320842 -0.036016133
-0.031403769 -0.012228698 -0.036023382
-0.028325927 -0.012537419 -0.038547974
-0.012322692 -0.012559286 -0.03577989
-0.0074818437 -0.012496755 -0.037111197
-0.0024293938 -0.012443117 -0.037760761
0.0024905147 -0.0125677 -0.037754741
0.0074116555 -0.01229256 -0.037150849
0.012407592 -0.012436524 -0.03575274
0.028219678 -0.012676763 -0.03863604
0.031328902 -0.012440288 -0.036084827
-0.031287517 -0.0079890043 -0.036118798
-0.027827332 -0.0075598899 -0.038628839
-0.012283196 -0.0074464008 -0.035790935
-0.007723094 -0.0073412168 -0.0370676
-0.0021844551 -0.0070451787 -0.037883047
0.0023669794 -0.0070000039 -0.037867062
0.0075992593 -0.0072658667 -0.037107851
0.012598183 -0.0077919085 -0.035695508
0.028364262 -0.0077724466 -0.038516115
0.031325489 -0.0074915993 -0.036087628
-0.031564366 -0.0021743632 -0.035891589
-0.028263321 -0.0027492195 -0.038599975
-0.012473694 -0.0025300297 -0.035733379
-0.0075230012 -0.0021920763 -0.037114378
-0.0023750719 -0.0025654912 -0.037766118
0.0026584435 -0.0026184639 -0.037738204
0.0073831361 -0.0023712683 -0.037156388
0.012323436 -0.0026816125 -0.035779584
0.028117623 -0.0024503614 -0.038717315
0.031254254 -0.0023839471 -0.036146101
-0.031354684 0.002408976 -0.036063667
-0.028235216 0.0023543295 -0.038622808
-0.012527252 0.0026746413 -0.035716411
-0.007387443 0.0023636583 -0.037137486
-0.0029073714 0.0027060104 -0.037728269
0.0024161167 0.0023404469 -0.037866954
0.007261883 0.0023632501 -0.037157152
0.0123609 0.0024843586 -0.035767652
0.028460981 0.0026773107 -0.038437583
0.031381767 0.0021523915 -0.036041439
-0.031379413 0.0077174944 -0.036043376
-0.027799023 0.0077829515 -0.03859733
-0.012457533 0.0070153847 -0.03586087
-0.0070774569 0.0068892729 -0.037113342
-0.0024802694 0.0072267456 -0.037755754
0.0023303877 0.0072357045 -0.03777051
0.0074801543 0.0070069996 -0.03707717
0.012567254 0.0078031248 -0.035704926
0.028192062 0.0074312775 -0.038658731
0.03135838 0.007032421 -0.036060646
-0.03107493 0.012119129 -0.036293279
-0.028111078 0.012580537 -0.038724709
-0.012112442 0.012339694 -0.035842974
-0.0073252926 0.012506329 -0.037167847
-0.002419224 0.012400787 -0.03776177
0.0026993747 0.012567068 -0.037734177
0.0076067755 0.012633803 -0.037091326
0.012276502 0.012714142 -0.035915129
0.028244516 0.012174737 -0.038614564
0.031579703 0.012753255 -0.035878982
-0.03017259 0.016901677 -0.036147028
-0.027691612 0.016944883 -0.038617302
-0.012252781 0.017519893 -0.035800446
-0.0073847426 0.017452355 -0.037147637
-0.0025473228 0.017914429 -0.037749149
0.0022981092 0.017565252 -0.037773691
0.0070489012 0.017545698 -0.03731649
0.012287824 0.017291918 -0.035789829
0.028191447 0.017770829 -0.038603637
0.031364124 0.017633466 -0.036055919
-0.031221393 0.022636857 -0.036092546
-0.027843881 0.023558067 -0.037556473
-0.022543911 0.024500011 -0.03756851
-0.017292796 0.024499999 -0.037300199
-0.012525252 0.02318453 -0.036859665
-0.0077745202 0.022479702 -0.037582792
-0.0027939714 0.022970015 -0.038114216
0.00248235 0.02316045 -0.038164038
0.0074657472 0.023107873 -0.037631832
0.012398778 0.023259923 -0.036756448
0.01745419 0.023881406 -0.037582677
0.022367397 0.024155058 -0.037619252
0.027495386 0.023469718 -0.037949987
0.030772476 0.021883337 -0.0359919
-0.036032759 -0.022751952 -0.031135533
-0.033072434 -0.023441322 -0.03297177
-0.027594319 -0.024500009 -0.032416392
-0.022293845 -0.023638047 -0.032252099
-0.017624415 -0.023002783 -0.033753313
-0.014904022 -0.022329234 -0.034913536
0.01487935 -0.0221592 -0.034926724
0.017601296 -0.022663262 -0.033606313
0.022327192 -0.023438973 -0.031886555
0.027046824 -0.023511708 -0.032635044
0.032906115 -0.023705181 -0.033044361
0.035941988 -0.022443255 -0.031326648
-0.034598418 -0.017361023 -0.03161934
-0.034022279 -0.017676145 -0.033756077
-0.021598373 -0.017328886 -0.03115074
-0.017686924 -0.017208729 -0.033426352
-0.014882202 -0.017569896 -0.0349252
0.014844976 -0.018655201 -0.034945093
0.017304175 -0.017735615 -0.033630904
0.020924583 -0.017770274 -0.031324055
0.03333354 -0.017405726 -0.034129303
0.035995729 -0.017144255 -0.031437468
-0.036068354 -0.012592923 -0.031348977
-0.033728383 -0.012332629 -0.03403182
-0.021478327 -0.012554009 -0.031229306
-0.017447472 -0.012614792 -0.033554327
-0.014839796 -0.012956444 -0.034947861
0.014869526 -0.012512731 -0.034931973
0.017471433 -0.012216825 -0.033541508
0.021489706 -0.012516583 -0.031210328
0.033923183 -0.01241708 -0.033850584
0.036178105 -0.012712286 -0.031215256
-0.036088184 -0.0074858894 -0.031324826
-0.03400607 -0.0074185333 -0.033758506
-0.021433873 -0.0073667304 -0.031270444
-0.017275704 -0.0074242582 -0.033646118
-0.014831729 -0.0081495354 -0.034952175
0.01492042 -0.006669058 -0.034904774
0.017537674 -0.0073624216 -0.033506121
0.021581352 -0.0070017837 -0.031129602
0.033829007 -0.0076761311 -0.033943594
0.03582719 -0.007841167 -0.03143438
-0.035304558 -0.0022268365 -0.031709205
-0.033175088 -0.0022647111 -0.034286205
-0.021818371 -0.00269975 -0.030974733
-0.017444188 -0.0023048576 -0.03355607
-0.014868803 -0.0034271565 -0.034932356
0.014862203 -0.00245871 -0.034935888
0.01734703 -0.0023942417 -0.033607997
0.021545541 -0.0024366328 -0.031185253
0.033950791 -0.0024657836 -0.033822253
0.036196876 -0.0028758235 -0.03119239
-0.036159534 0.0028356665 -0.03123788
-0.033789404 0.0027613519 -0.033967022
-0.021268064 0.002546299 -0.031274341
-0.017416529 0.0018349799 -0.03363961
-0.014847338 0.0026337721 -0.03494383
0.0148645 0.0025916048 -0.034934659
0.017364644 0.0025568416 -0.033598587
0.021745356 0.0024597317 -0.031035231
0.033727851 0.0022795536 -0.034026168
0.035951525 0.0027275595 -0.031491317
-0.036010168 0.0074804551 -0.03141987
-0.033877231 0.0072359825 -0.033887986
-0.021539301 0.0072906353 -0.031192932
-0.01754456 0.007476097 -0.033502437
-0.01489302 0.0070428266 -0.034919418
0.01487474 0.0069348426 -0.034929186
0.017027074 0.0070975847 -0.033908285
0.021351852 0.0077144462 -0.031335954
0.033815969 0.0075257909 -0.033948615
0.036169659 0.0074938037 -0.03122554
-0.036016598 0.012283367 -0.031412043
-0.03394505 0.012929865 -0.033824801
-0.021251692 0.012086683 -0.031175533
-0.01718721 0.012857039 -0.03369341
-0.0148803 0.013020612 -0.034926217
0.014873311 0.012564501 -0.03492995
0.01752165 0.012394702 -0.033514682
0.021532293 0.012088037 -0.03118347
0.033987928 0.012665255 -0.033790767
0.03603591 0.01197977 -0.031385154
-0.036125891 0.017483553 -0.031278875
-0.033937104 0.017264007 -0.03383499
-0.021505438 0.01736938 -0.031214146
-0.017636916 0.016973983 -0.033517662
-0.014877691 0.017685233 -0.034927607
0.014874795 0.01756678 -0.034929156
0.017611841 0.016858846 -0.033505142
0.021482514 0.017341139 -0.031242985
0.033968274 0.01769433 -0.03379485
0.036351331 0.01778931 -0.031004185
-0.036030389 0.022378782 -0.031263202
-0.032783657 0.023508668 -0.03296344
-0.027584795 0.024500011 -0.032273587
-0.022126948 0.023359923 -0.031975195
-0.017526809 0.022891803 -0.033717562
-0.014954491 0.023839757 -0.034886569
0.014922827 0.02218218 -0.034903489
0.017852174 0.022737233 -0.033555999
0.021934219 0.023182411 -0.03222445
0.027145566 0.024499999 -0.03250584
0.032882273 0.02345705 -0.032891281
0.03608894 0.022533773 -0.031212354
-0.040478431 -0.022030979 -0.025605315
-0.037916481 -0.023267426 -0.027672324
-0.032613602 -0.024500009 -0.027464718
-0.026678735 -0.022766991 -0.027550083
-0.024154872 -0.022657679 -0.02920909
0.024222283 -0.022771943 -0.029190978
0.027492832 -0.023440855 -0.027283769
0.032595102 -0.024487657 -0.027386442
0.037817389 -0.023509594 -0.027699167
0.04047142 -0.022030823 -0.025618371
-0.04038287 -0.017658716 -0.025784111
-0.038174003 -0.01701881 -0.028226417
-0.026826615 -0.017807249 -0.026743315
-0.023973722 -0.017523477 -0.029247181
0.022886528 -0.016724395 -0.029517462
0.026713517 -0.01765256 -0.026846569
0.038678423 -0.01752544 -0.028166277
0.040376052 -0.018169785 -0.025796885
-0.040451553 -0.012913217 -0.02565562
-0.038545866 -0.01257515 -0.02832949
-0.026815709 -0.012677499 -0.026762646
-0.024055712 -0.012440164 -0.02917989
0.024094291 -0.012666549 -0.029148221
0.026951266 -0.012570556 -0.026636332
0.038585123 -0.012382858 -0.028281424
0.039182935 -0.011221866 -0.026141064
-0.039554629 -0.00749296 -0.026043825
-0.038629841 -0.0077392124 -0.028226884
-0.026696276 -0.0075879153 -0.026886044
-0.023950677 -0.007586319 -0.029266099
0.023766024 -0.0077331462 -0.029417654
0.026597083 -0.0073826546 -0.026972355
0.038589504 -0.0074788206 -0.028276475
0.039405983 -0.0071873991 -0.026703255
-0.040368266 -0.0032313552 -0.025811439
-0.038635898 -0.0024111352 -0.02821927
-0.02635522 -0.0021415388 -0.027009953
-0.023295337 -0.0029098631 -0.029434629
0.024057081 -0.0033138699 -0.029178765
0.026550164 -0.0026080224 -0.027004426
0.038644023 -0.0024875843 -0.028209599
0.040366706 -0.002457543 -0.02581436
-0.040344562 0.0024459152 -0.0258558
-0.038760163 0.0022360487 -0.028067607
-0.026745902 0.0021997895 -0.026972584
-0.024077859 0.0025132305 -0.02916171
0.024206156 0.0024246688 -0.029056404
0.026718378 0.0024549158 -0.026832435
0.038511466 0.0022600684 -0.028371423
0.040433958 0.0019868654 -0.025688533
-0.040378984 0.007607393 -0.025791373
-0.038424619 0.0074229101 -0.028477652
-0.026072994 0.0071893423 -0.026886335
-0.023843022 0.007429 -0.029354449
0.02411701 0.0075495574 -0.029129576
0.026779169 0.0075575961 -0.026775165
0.038570598 0.0075793215 -0.028298397
0.040402047 0.0076404549 -0.025748232
-0.040479213 0.012549286 -0.025603853
-0.038515605 0.012700658 -0.028319888
-0.026767079 0.01241088 -0.026817873
-0.024028545 0.012439819 -0.029202182
0.023935877 0.012743353 -0.029278249
0.025944499 0.012003292 -0.0269951
0.038473912 0.012512798 -0.028416818
0.040342472 0.012372398 -0.025859712
-0.040440634 0.017646817 -0.025676042
-0.038535748 0.017705331 -0.028341983
-0.02665263 0.017526399 -0.026911467
-0.023936367 0.017808679 -0.029277839
0.024180179 0.017808717 -0.029077727
0.026054895 0.017627595 -0.027276872
0.038683474 0.017452396 -0.028162235
0.040249698 0.017414257 -0.025924718
-0.040426306 0.022793714 -0.025697147
-0.038008995 0.023197388 -0.027732009
-0.032424957 0.024083484 -0.027503693
-0.026532268 0.022751905 -0.027185071
-0.023944929 0.022513917 -0.029303085
0.023971124 0.02229145 -0.029266877
0.02691485 0.023269888 -0.027296316
0.032440573 0.024500011 -0.027638307
0.037892874 0.023369497 -0.027758718
0.040431507 0.022135366 -0.025668263
-0.041838009 -0.022991689 -0.022375673
-0.037678156 -0.024500009 -0.0223963
-0.032094184 -0.023449635 -0.021987867
-0.02915032 -0.022529883 -0.024137255
0.02923879 -0.022663184 -0.024146521
0.032163285 -0.023289945 -0.022321489
0.037350841 -0.024500007 -0.022564236
0.041841574 -0.022727294 -0.022501668
-0.042189375 -0.017431401 -0.022404114
-0.031066412 -0.017177135 -0.021708932
-0.029208368 -0.017573601 -0.024021011
0.029167116 -0.017247733 -0.024071278
0.031084023 -0.017480884 -0.021685665
0.042080145 -0.017411133 -0.022608478
-0.042198371 -0.012326406 -0.022387287
-0.031202035 -0.012273998 -0.021528352
-0.029698888 -0.012693984 -0.023932341
0.029120797 -0.012472105 -0.024127705
0.031260077 -0.012504498 -0.021443162
0.042071879 -0.012498239 -0.022623962
-0.041889098 -0.0071065035 -0.022673042
-0.030716734 -0.0076865456 -0.021836722
-0.029248731 -0.007429108 -0.023971841
0.02772299 -0.0069329408 -0.024183461
0.031257324 -0.0075466624 -0.021436274
0.04236789 -0.0075876117 -0.022070099
-0.042272266 -0.002455411 -0.022249006
-0.031237042 -0.0023513339 -0.021468366
-0.028463254 -0.0031750703 -0.02445999
0.029231971 -0.0029111891 -0.023992257
0.031232998 -0.0024713327 -0.021444317
0.042091545 -0.0025792061 -0.022587156
-0.042095944 0.0024518014 -0.022578927
-0.031200903 0.0028001349 -0.021525344
-0.029313147 0.0026239636 -0.023893356
0.029224787 0.0027276578 -0.024001002
0.031112663 0.0022845739 -0.021655912
0.042149685 0.0023957081 -0.022478359
-0.042196888 0.0077878195 -0.022390038
-0.031153582 0.0075558373 -0.021583294
-0.02925737 0.0075626592 -0.023961311
0.029220862 0.0071404693 -0.024005787
0.031137757 0.0073091388 -0.02160142
0.042310428 0.0074106175 -0.022177616
-0.042158078 0.012194719 -0.022462657
-0.031211557 0.012287536 -0.021501241
-0.02905211 0.011858113 -0.024206109
0.029081538 0.012597892 -0.02417553
0.030211641 0.012412143 -0.021884542
0.041293219 0.01204825 -0.02255342
-0.042215418 0.017428825 -0.022355383
-0.031282499 0.017533954 -0.021415694
-0.029243568 0.017588714 -0.023978123
0.029148765 0.017369833 -0.024093632
0.031275172 0.01748389 -0.021406986
0.042118814 0.017698577 -0.022536134
-0.041931979 0.022871429 -0.022265691
-0.03749314 0.024500009 -0.022205526
-0.03081446 0.02266453 -0.022928018
-0.029172534 0.022572581 -0.024152402
0.029127197 0.02302864 -0.024179241
0.031977884 0.023646209 -0.022520263
0.037510514 0.024500011 -0.022666773
0.041822575 0.022584494 -0.022559498
-0.045207039 -0.022019643 -0.015530918
-0.042323083 -0.023281511 -0.018051809
-0.037596725 -0.024499999 -0.017528635
-0.033869784 -0.022314329 -0.017542515
0.03255292 -0.021883616 -0.017864266
0.037538674 -0.024500007 -0.01747966
0.042758722 -0.023083201 -0.017820632
0.044544999 -0.02092828 -0.016723033
-0.042098042 -0.016611999 -0.016857121
-0.044290993 -0.017487964 -0.018248376
-0.033620872 -0.017428806 -0.017533861
0.033602383 -0.017179789 -0.017518969
0.043435257 -0.017277401 -0.018328326
0.045223765 -0.018006928 -0.015475799
-0.043878518 -0.013020505 -0.016609341
-0.044262826 -0.012189756 -0.018272376
-0.03346232 -0.012597283 -0.017619636
0.032972593 -0.012454499 -0.017736172
0.044319805 -0.012405022 -0.018196687
0.04515468 -0.012272045 -0.015703507
-0.0451666 -0.0071752626 -0.015664201
-0.044280045 -0.0073311548 -0.018276302
-0.033327531 -0.0072324867 -0.017737964
0.033542275 -0.0074857809 -0.017470017
0.044115275 -0.0068746465 -0.018126192
0.045198105 -0.0074666361 -0.01556035
-0.045179754 -0.002151581 -0.015620846
-0.043565497 -0.0021529759 -0.018805571
-0.033663407 -0.0024297806 -0.017243328
0.032753058 -0.0024562865 -0.017908968
0.04430921 -0.0027073871 -0.018205132
0.045139369 -0.0025020225 -0.01575396
-0.045251027 0.0025671641 -0.015385908
-0.044327047 0.0022823452 -0.018161943
-0.032630283 0.0025262672 -0.017729159
0.033505049 0.0027472277 -0.017539646
0.044385038 0.0026307695 -0.018007854
0.04513637 0.0028137432 -0.015763845
-0.045223635 0.0074243965 -0.015476214
-0.044201791 0.0074204686 -0.018460322
-0.033502702 0.0076713506 -0.017544074
0.033459004 0.0073831398 -0.017625839
0.044051915 0.0069735404 -0.018246649
0.045170791 0.0077248383 -0.015650403
-0.045134831 0.01218244 -0.01576893
-0.044336494 0.012668191 -0.018122869
-0.033497836 0.012464003 -0.017553173
0.033551019 0.01263634 -0.017453644
0.044360694 0.012694873 -0.01803048
0.045215614 0.012444846 -0.015502661
-0.045184154 0.01822843 -0.015606344
-0.043631751 0.016598323 -0.018568996
-0.032444164 0.016742162 -0.017923437
0.032962333 0.017585268 -0.017934231
0.044400383 0.017376697 -0.017944282
0.045137171 0.017328616 -0.015761198
-0.045205921 0.022001803 -0.015515117
-0.043279804 0.023361441 -0.017659387
-0.037690941 0.024500009 -0.017223695
-0.033361323 0.022278063 -0.017955525
0.033608351 0.022644177 -0.017629517
0.037328593 0.024500011 -0.017666971
0.043287683 0.023443189 -0.017648179
0.045186829 0.022012673 -0.01559754
-0.045350872 -0.022675879 -0.012382667
-0.042401023 -0.024500007 -0.012219778
-0.036583435 -0.023003355 -0.012551401
-0.034944974 -0.022517461 -0.014845199
0.034932908 -0.02194432 -0.014867783
0.035252735 -0.022993673 -0.013004269
0.042483199 -0.024500007 -0.012271848
0.045940805 -0.022771712 -0.012671251
-0.046173297 -0.017506134 -0.012345998
-0.035104156 -0.017553607 -0.012430969
-0.034922101 -0.016978633 -0.014888011
0.034930848 -0.016983692 -0.01487163
0.034875974 -0.017176 -0.012723467
0.046006165 -0.017662885 -0.012896894
-0.046120465 -0.012682387 -0.012520151
-0.035597932 -0.011863953 -0.012743955
-0.0349303 -0.013496081 -0.014872658
0.034928527 -0.012091669 -0.01487598
0.035507731 -0.012419115 -0.012647847
0.045998901 -0.012420302 -0.012764588
-0.04599772 -0.0074578845 -0.01281318
-0.035814151 -0.0074105649 -0.012208477
-0.034949515 -0.0089356564 -0.014836697
0.034936685 -0.0078833932 -0.014860706
0.035686757 -0.0076291934 -0.01263041
0.046136364 -0.0077267857 -0.012467724
-0.04616528 -0.0026411605 -0.01237243
-0.035676561 -0.002701439 -0.0126619
-0.034905866 -0.0027002005 -0.014918379
0.034948867 -0.0031507208 -0.014837917
0.035810955 -0.0025155747 -0.012219307
0.045856945 -0.0027100726 -0.012621733
-0.046233606 0.0024452205 -0.012147211
-0.035737686 0.002420665 -0.012462327
-0.034910738 0.0027930497 -0.014909262
0.034926973 0.0015602605 -0.014878883
0.035764329 0.0025090093 -0.012369515
0.046181396 0.0021268085 -0.012319223
-0.046032712 0.0075631011 -0.012809405
-0.035844382 0.0076488242 -0.012306543
-0.034948923 0.0078552263 -0.014837811
0.034955859 0.0091542136 -0.014824827
0.035694569 0.0075397859 -0.012601297
0.046040386 0.0077215652 -0.012784105
-0.045129206 0.012258999 -0.012321374
-0.035573121 0.012619721 -0.012634343
-0.03494101 0.012767809 -0.014852609
0.03492815 0.011977122 -0.014876681
0.035744943 0.012260213 -0.012436222
0.046163425 0.012468992 -0.01237854
-0.045607939 0.017345414 -0.013008823
-0.035806797 0.017278008 -0.012233587
-0.034918725 0.018165693 -0.014894317
0.034902852 0.017296446 -0.01492402
0.035690222 0.017536104 -0.012616031
0.046065282 0.017245648 -0.012702034
-0.046055086 0.02251038 -0.012382851
-0.042367764 0.024500009 -0.012786906
-0.036677554 0.023402276 -0.012736377
-0.034927964 0.022286363 -0.014877019
0.036680136 0.022919748 -0.012550949
0.042423602 0.024500011 -0.012540099
0.046083901 0.022903075 -0.012116982
-0.046944156 -0.022912102 -0.0074211624
-0.042613003 -0.024500009 -0.0076350709
-0.037803777 -0.023196861 -0.0074462313
0.037590254 -0.022699868 -0.0079382146
0.042461235 -0.024500009 -0.0073356279
0.046942554 -0.023054693 -0.0072795381
-0.047220889 -0.017587716 -0.0077835354
-0.037090059 -0.017525878 -0.007676465
0.037120614 -0.017350622 -0.0074733212
0.047227249 -0.017528996 -0.0077498206
-0.047238536 -0.012488334 -0.0076599121
-0.037100017 -0.012335462 -0.0076042833
0.036283892 -0.01251331 -0.0077123214
0.047267474 -0.012916545 -0.0073263892
-0.046069916 -0.007418788 -0.0079035806
-0.036346368 -0.0072672898 -0.0076597291
0.03716097 -0.0070080264 -0.0073606088
0.047259308 -0.0073428173 -0.0074511571
-0.04723702 -0.0024330637 -0.0076584057
-0.037065469 -0.0028259465 -0.0077475179
0.037132096 -0.0027782158 -0.0074397493
0.0471914 -0.0026462961 -0.0075748307
-0.047242213 0.0025060966 -0.0076047429
-0.036873497 0.0025211992 -0.0077148802
0.036732975 0.0020890306 -0.0083513232
0.046957441 0.0024279568 -0.007982919
-0.047205135 0.0072170068 -0.0077492017
-0.037089687 0.0073862947 -0.0076843132
0.037148237 0.0075803204 -0.0073633445
0.047140121 0.00730083 -0.0076632933
-0.04722229 0.012727227 -0.007778978
-0.03715837 0.012346282 -0.0073278951
0.036271274 0.012443776 -0.0078740194
0.047244884 0.012407199 -0.007574175
-0.047249313 0.017350987 -0.0075472808
-0.037093084 0.017480738 -0.0076070875
0.037094202 0.017642448 -0.0076092049
0.047283754 0.017310921 -0.0072086179
-0.046885602 0.022992266 -0.007418674
-0.042576488 0.024403149 -0.0080569843
-0.037701204 0.023022372 -0.0075149364
0.037029702 0.023117568 -0.0079522869
0.041293979 0.024005394 -0.0081862509
0.046855841 0.02300919 -0.0075128856
-0.04651235 -0.023059744 -0.002717715
-0.041722007 -0.024016323 -0.0027230042
-0.038069643 -0.022937305 -0.0026972422
0.038179435 -0.023114335 -0.0024948521
0.041551422 -0.024185088 -0.0029741314
0.046419896 -0.022764388 -0.003219459
-0.046968039 -0.01712412 -0.0029786052
-0.037744425 -0.017312193 -0.0025952996
0.037144776 -0.017706972 -0.0031347268
0.047462251 -0.016712556 -0.002841522
-0.047723837 -0.012595865 -0.0028047645
-0.037735302 -0.01256447 -0.0026879283
0.036762334 -0.012153465 -0.0027004422
0.046871975 -0.012065559 -0.0030415787
-0.046201326 -0.0076564304 -0.0028651133
-0.037777003 -0.0073240879 -0.0022644694
0.037600793 -0.0073684049 -0.0027156093
0.04716558 -0.0072650108 -0.0028159355
-0.047708653 -0.0025974184 -0.0029589587
-0.037745602 -0.0023073149 -0.0027465632
0.037749432 -0.0026168653 -0.002544434
0.047748897 -0.0029145777 -0.002550201
-0.047755402 0.0022818325 -0.0024842431
-0.037773564 0.0026220034 -0.0022994392
0.037730273 0.002142438 -0.0024922555
0.046920273 0.0026797554 -0.0027840186
-0.046136282 0.0070224437 -0.0035756847
-0.03773921 0.0076314947 -0.0026482251
0.037738848 0.0072163232 -0.0026519201
0.047726884 0.007353161 -0.0027737794
-0.047722574 0.012317264 -0.0028175302
-0.037769224 0.012642421 -0.0023434216
0.037769493 0.012596253 -0.0023406807
0.046707116 0.011863627 -0.0030723354
-0.047754098 0.017588748 -0.0024974879
-0.037721779 0.01740877 -0.0028252217
0.036597185 0.016507333 -0.0034687596
0.047784567 0.01744299 -0.0021879459
-0.047201384 0.022831608 -0.0027394176
-0.041901227 0.024304302 -0.0030215203
-0.037971016 0.022029715 -0.0027268503
0.038123839 0.023240747 -0.002580628
0.042451024 0.024500009 -0.0021058726
0.047095463 0.022921044 -0.002778678
-0.04648577 -0.022713546 0.0021153747
-0.042450663 -0.024500011 0.0024416286
-0.037713185 -0.022632031 0.0021252173
0.038133282 -0.022975149 0.0026228023
0.042337332 -0.024500011 0.002321755
0.04638233 -0.023089524 0.0019520933
-0.047743909 -0.017276617 0.002601038
-0.037275076 -0.01725697 0.0018010521
0.037745107 -0.017407469 0.0025883303
0.046717785 -0.017111031 0.0022529436
-0.047035042 -0.012150985 0.002054662
-0.037749574 -0.012485251 0.0025430671
0.036699362 -0.012177843 0.0020641012
0.047751121 -0.012198427 0.0025276134
-0.046943992 -0.0067391708 0.001618772
-0.037854392 -0.006472392 0.0024702761
0.037742451 -0.0076215253 0.002615381
0.047543272 -0.0077833286 0.0023030362
-0.047739703 -0.0028159879 0.0026435172
-0.037753873 -0.0022732357 0.0024994179
0.037755474 -0.0024117692 0.0024830508
0.047757607 -0.0026394129 0.0024617948
-0.047761813 0.002583388 0.0024190389
-0.037731644 0.0022629665 0.0027250524
0.036220752 0.0019620478 0.0018235991
0.047376171 0.0018865374 0.0020740281
-0.046416558 0.0075833919 0.0011246984
-0.037757356 0.0075024841 0.0024638744
0.037746314 0.0076386426 0.0025761647
0.047779281 0.0075652869 0.0022417216
-0.047772571 0.012579361 0.0023097957
-0.037780713 0.01237674 0.0022267362
0.037780259 0.012580903 0.0022314116
0.047763642 0.012721892 0.0024004544
-0.047783181 0.01752241 0.0022020962
-0.037741076 0.017625449 0.002629261
0.037752599 0.017451065 0.0025123393
0.047042701 0.017211556 0.0020362539
-0.046585593 0.022739107 0.0024100039
-0.042301081 0.024292009 0.0022031006
-0.038149558 0.023153985 0.002451167
0.038188308 0.023227775 0.0024342889
0.042065457 0.024124343 0.0018415685
0.047140867 0.022954302 0.0026120327
-0.046629902 -0.022876425 0.007067251
-0.042426474 -0.023994848 0.0076105618
-0.03776107 -0.022772284 0.007311712
0.036492363 -0.022659991 0.0068957326
0.042735718 -0.024500009 0.0070737298
0.04689765 -0.022498574 0.0072666458
-0.047259066 -0.017460126 0.0074529881
-0.037126761 -0.017572299 0.0075179264
0.037252802 -0.017101983 0.0071706916
0.047236286 -0.017087985 0.0073909219
-0.04726975 -0.012279422 0.0073490264
-0.03709339 -0.012598741 0.0075787324
0.036216542 -0.011612576 0.0064303637
0.046980642 -0.012505776 0.0066906679
-0.047241997 -0.0073457207 0.0075858645
-0.037169825 -0.0071568047 0.0069100899
0.036962196 -0.0071286405 0.0070172451
0.047255803 -0.0072824024 0.007417649
-0.046782061 -0.0020894592 0.0070668776
-0.037145678 -0.0023866477 0.0073860334
0.037092857 -0.0024761953 0.0076626069
0.047248464 -0.002399026 0.0075350194
-0.047273114 0.0021926311 0.0073193489
-0.037122779 0.0026977784 0.0075590932
0.036840893 0.0024497004 0.0066165128
0.046764329 0.0023116143 0.0070051537
-0.04636988 0.0073200944 0.0070556323
-0.035976589 0.0074249278 0.0071138781
0.037175823 0.0074145738 0.0072650039
0.047219556 0.0071430393 0.0077834176
-0.046815667 0.012774548 0.0068620513
-0.037068967 0.012749294 0.0077064862
0.036802981 0.012676788 0.0069890111
0.047069613 0.011929746 0.006812328
-0.045928054 0.01708577 0.0074504591
-0.037072618 0.017721239 0.0076894281
0.037205454 0.017139371 0.0074569811
0.04645573 0.017667836 0.0063764434
-0.046836413 0.022878114 0.0068749031
-0.042527519 0.024500009 0.0073020244
-0.0377215 0.023095673 0.0073216665
0.037792012 0.023045158 0.0074450052
0.042318948 0.024499997 0.0074294568
0.046862628 0.023214402 0.0072524967
-0.046065696 -0.022430308 0.012415136
-0.041780517 -0.024205878 0.011849486
-0.036717191 -0.022729304 0.012220824
-0.034915771 -0.02279081 0.014899851
0.034972839 -0.020799948 0.014793055
0.036489122 -0.023016909 0.011910349
0.042370468 -0.024500003 0.012065765
0.044769753 -0.02182118 0.012397408
-0.046139088 -0.017731607 0.012458771
-0.034753826 -0.017471125 0.012426414
-0.034935541 -0.016652849 0.014862849
0.03487096 -0.018868007 0.014983691
0.0357107 -0.017443979 0.012546523
0.04620716 -0.017456878 0.012234415
-0.045186367 -0.012306097 0.012007501
-0.035268269 -0.012689808 0.011896479
-0.034917291 -0.011120456 0.014896996
0.034945052 -0.012891851 0.01484505
0.035792928 -0.012556691 0.012278009
0.046108183 -0.012482568 0.012560639
-0.044887956 -0.0074587297 0.011519179
-0.035776988 -0.0073277587 0.012329606
-0.034946069 -0.0084384885 0.014843153
0.0349367 -0.0076343021 0.014860679
0.035790656 -0.0074753221 0.012286565
0.046138424 -0.0074257655 0.012460984
-0.045226496 -0.0027305528 0.012269209
-0.035113648 -0.002732767 0.011652731
-0.034911472 -0.0027278117 0.014907899
0.034893237 -0.003795478 0.014942006
0.035108976 -0.00284481 0.011428811
0.046105757 -0.0025890204 0.012568599
-0.046090066 0.0023982623 0.01262032
-0.03341043 0.002709971 0.010962058
-0.034921564 0.0035532566 0.014889005
0.034949493 0.0020436137 0.01483674
0.035892598 0.0026288403 0.011951701
0.046018846 0.0029148839 0.011729
-0.046259593 0.0072822352 0.012061569
-0.034980565 0.0073398198 0.011517991
-0.034914967 0.0077893315 0.014901354
0.034958787 0.0068840953 0.01481935
0.03580777 0.0072431783 0.012231684
0.04572935 0.0075175124 0.011839431
-0.045965791 0.012384318 0.011995388
-0.03564724 0.012236556 0.011864335
-0.034903903 0.013546433 0.014922053
0.034903064 0.011860779 0.014923617
0.035818886 0.012538083 0.012152609
0.046153307 0.012544755 0.012411893
-0.046054922 0.017475018 0.01273617
-0.035846781 0.017844994 0.01210119
-0.034962106 0.017581468 0.01481314
0.034967117 0.017732421 0.01480377
0.034806855 0.016698238 0.0117359
0.046062775 0.016852049 0.012200087
-0.044595953 0.022363177 0.011758485
-0.041976918 0.02434371 0.011729675
-0.0363045 0.022816546 0.011528785
-0.034936599 0.02107696 0.01486087
0.034943752 0.021579662 0.014847488
0.036368117 0.023286287 0.012009932
0.042319201 0.024007739 0.012160232
0.045854807 0.022444686 0.012712466
-0.044697687 -0.021495968 0.015557031
-0.042647723 -0.02333628 0.017482435
-0.037071578 -0.024123056 0.016797749
-0.033091385 -0.022765446 0.017285515
0.033293523 -0.022619043 0.017056018
0.037666924 -0.024302045 0.017518582
0.04263059 -0.023381414 0.017327638
0.045182113 -0.02261092 0.015613054
-0.041967496 -0.017476061 0.012809472
-0.044401556 -0.016968908 0.017662546
-0.033455808 -0.017476832 0.017631812
0.032723349 -0.017136101 0.017302005
0.044316802 -0.017415078 0.018190725
0.045173187 -0.017883075 0.015642514
-0.045194939 -0.013190836 0.015570783
-0.043998893 -0.011922588 0.017618094
-0.033379246 -0.012616884 0.01777509
0.032849025 -0.012619169 0.017083324
0.043906808 -0.012108791 0.017468913
0.045153014 -0.011864417 0.01570899
-0.04518842 -0.0075370716 0.01559228
-0.044322226 -0.0071650683 0.018183002
-0.033507917 -0.0075406325 0.017534308
0.032769576 -0.0072570303 0.016808221
0.043061249 -0.0072754859 0.018003553
0.045176931 -0.0075345468 0.015630156
-0.04518611 -0.0020244541 0.015599905
-0.044276569 -0.0025567866 0.018269997
-0.032364588 -0.0025598011 0.016355209
0.033092905 -0.0025544516 0.016519642
0.043319162 -0.0016242416 0.016388128
0.045234587 -0.0024805088 0.0154401
-0.045178574 0.0018978248 0.015624749
-0.044349071 0.0024317401 0.018061524
-0.033426493 0.0026004517 0.017686676
0.033512637 0.002780783 0.0171331
0.044309847 0.0023969263 0.018177152
0.045189638 0.0024135036 0.015588271
-0.045188185 0.0074610412 0.01559305
-0.04295446 0.0078214016 0.017261976
-0.033433415 0.0070198351 0.017111288
0.032536451 0.0072484552 0.017329844
0.0432778 0.0070126457 0.01780053
0.045167383 0.0075440491 0.015661584
-0.04518114 0.011908639 0.015616293
-0.044188935 0.012331028 0.017810889
-0.032143146 0.011811667 0.016238449
0.033328503 0.012443867 0.017870031
0.044355076 0.012834143 0.018088888
0.045199588 0.012310876 0.015555479
-0.045171753 0.017260194 0.015647221
-0.044314548 0.017520661 0.018198637
-0.033221435 0.016850021 0.016240546
0.033646025 0.016961372 0.01740673
0.044374645 0.017330324 0.018027106
0.045217577 0.018119946 0.015496172
-0.04514521 0.022755884 0.015716815
-0.042438991 0.02300583 0.017193276
-0.037992507 0.024500009 0.01758288
-0.03351314 0.02274395 0.01778472
0.033683516 0.022833286 0.017683387
0.037224036 0.024500009 0.017287105
0.043282676 0.02349532 0.017777072
0.041372519 0.022707146 0.014144114
-0.041715227 -0.022426976 0.021777065
-0.035759881 -0.024307899 0.021174613
-0.030830905 -0.022892686 0.021662094
-0.029328965 -0.022614382 0.024011515
0.027025128 -0.021508068 0.020249294
0.032012999 -0.023196205 0.021568794
0.037442274 -0.024500003 0.022750814
0.041944407 -0.023025164 0.022283958
-0.042052601 -0.017301667 0.022660004
-0.03121989 -0.017364234 0.021487845
-0.029207174 -0.017645463 0.024022469
0.029220236 -0.017438201 0.024006553
0.031267103 -0.017254386 0.021440076
0.042057063 -0.017547367 0.022651665
-0.042163096 -0.012607487 0.022453262
-0.03010121 -0.012493394 0.020546453
-0.029197693 -0.012274378 0.024034027
0.029195355 -0.012482473 0.024036866
0.030003861 -0.012114057 0.021456189
0.041894123 -0.012132975 0.022034401
-0.041258816 -0.0077149663 0.021909276
-0.030103011 -0.0070988983 0.021338321
-0.029295038 -0.0072769085 0.023915414
0.029228518 -0.0072472375 0.023996465
0.031184824 -0.0077508166 0.021537423
0.04219899 -0.007416111 0.022386126
-0.040765811 -0.0022461589 0.021645142
-0.030185802 -0.0024933419 0.021487614
-0.029093402 -0.0025808171 0.02416108
0.0270709 -0.0015184279 0.023386588
0.030507695 -0.0026395626 0.020764787
0.042374268 -0.0026052552 0.022058181
-0.041386597 0.0027380369 0.021795345
-0.031148711 0.0023760225 0.021592071
-0.029190015 0.0026145002 0.024043368
0.027348388 0.0023746388 0.022915566
0.030790992 0.0023411503 0.020385159
0.042010184 0.0023531176 0.022739369
-0.040388726 0.007586142 0.021868292
-0.02885103 0.0077560632 0.020248739
-0.029258754 0.0075738677 0.023959618
0.029343149 0.0067262203 0.023577886
0.03107821 0.0074746483 0.021672919
0.041040793 0.0076512326 0.021897456
-0.042118739 0.012677807 0.022536267
-0.028820021 0.011336166 0.020956114
-0.029446512 0.012037389 0.023276249
0.029230531 0.012505914 0.023994004
0.031164156 0.012357238 0.021566667
0.04219345 0.012466197 0.021872066
-0.042189121 0.017586475 0.022404579
-0.031173693 0.017402716 0.021571837
-0.027955901 0.017957259 0.022791099
0.029283443 0.017032957 0.022514516
0.030269425 0.015885375 0.020329872
0.041533902 0.017255004 0.02184785
-0.041024018 0.02235443 0.021523226
-0.036942586 0.024196899 0.022022692
-0.031226601 0.022846201 0.021494737
-0.029127015 0.022285612 0.024188822
0.029189754 0.022376746 0.024078101
0.032084297 0.023541382 0.022266164
0.037213903 0.024252003 0.022189662
0.041812349 0.022561982 0.021853635
-0.040286381 -0.022140533 0.025964653
-0.037132174 -0.022670064 0.027538721
-0.032772962 -0.024500009 0.027280018
-0.027416563 -0.023346335 0.027267857
-0.024138227 -0.022953551 0.029229216
0.024402339 -0.022811815 0.028402811
0.026917774 -0.023034211 0.026857819
0.032467488 -0.024500009 0.027458781
0.037121158 -0.023340929 0.02754914
0.040312935 -0.022791611 0.025914973
-0.040175386 -0.017161062 0.02523404
-0.037463635 -0.017295305 0.027914435
-0.025664991 -0.017029509 0.025396753
-0.024189785 -0.017393511 0.029069848
0.024090277 -0.01742045 0.029151516
0.02671507 -0.017528642 0.026860302
0.038113035 -0.017189348 0.027071262
0.040409811 -0.017091319 0.025733707
-0.040389176 -0.01222504 0.025772322
-0.038589749 -0.012405084 0.028275449
-0.027035858 -0.01235214 0.026534824
-0.024087436 -0.012254124 0.029153842
0.022227179 -0.012015281 0.027845724
0.026769785 -0.012334775 0.026809325
0.038742147 -0.012438511 0.028088899
0.040449537 -0.012754216 0.025659384
-0.040397175 -0.0079512782 0.025757361
-0.038131118 -0.0076105786 0.027236627
-0.026763277 -0.007635619 0.026819373
-0.022645496 -0.007518068 0.02782331
0.024198199 -0.0075021242 0.029062936
0.026828209 -0.0069267652 0.025793741
0.038502421 -0.0071228719 0.028380914
0.040430572 -0.0071859644 0.024467656
-0.040351246 -0.0026830293 0.025843285
-0.038759969 -0.0027495455 0.027934317
-0.02697864 -0.0027892368 0.026342448
-0.024167797 -0.0025026205 0.029087894
0.023990663 -0.0022703032 0.029233281
0.026391061 -0.0024021508 0.025885083
0.03785181 -0.0025980012 0.026045538
0.038049709 -0.0031801646 0.023971535
-0.040413223 0.0022201301 0.025727328
-0.038466737 0.0024116789 0.02842623
-0.025772829 0.0021330984 0.026722923
-0.02401468 0.002471026 0.029213563
0.023929613 0.0023720567 0.029283386
0.026855983 0.0025868972 0.026718121
0.038390733 0.0026700227 0.027074002
0.040447388 0.0020999382 0.025663408
-0.040424231 0.0076277507 0.025706731
-0.038717546 0.0075254417 0.028118186
-0.026905712 0.0074477904 0.026658313
-0.024065133 0.0075267362 0.029172152
0.024628039 0.0076918188 0.028492332
0.026684124 0.0075105974 0.026882177
0.038470507 0.0073263622 0.028421221
0.040481608 0.0062572323 0.025599372
-0.04039875 0.012067595 0.025754405
-0.037547562 0.012682365 0.0279241
-0.025886854 0.012259036 0.026446549
-0.023962546 0.012604179 0.029256355
0.024052877 0.012264464 0.02918222
0.026712572 0.012321194 0.025869995
0.038561802 0.012433052 0.028310372
0.040440675 0.012493044 0.025675969
-0.03774292 0.016840393 0.025939459
-0.03745896 0.016963275 0.026146013
-0.026750533 0.017795533 0.026821038
-0.023986608 0.017631028 0.029236607
0.024054576 0.017537808 0.029180817
0.026213005 0.017006477 0.025588458
0.038661506 0.0177614 0.028185265
0.038093336 0.017033346 0.023177803
-0.040240269 0.021789832 0.024532553
-0.037776623 0.022833319 0.027329067
-0.031631939 0.024152173 0.026876472
-0.027418831 0.022883452 0.027427092
-0.02275854 0.022710796 0.028875504
0.024046797 0.022626845 0.029276513
0.027463367 0.023411153 0.027703721
0.032767937 0.024500003 0.02773715
0.03738692 0.022449719 0.025882022
0.040395942 0.022310276 0.025751183
-0.03570227 -0.021231476 0.028216779
-0.033077687 -0.023344258 0.032635268
-0.027049163 -0.024180394 0.031785514
-0.022479653 -0.023676133 0.03214357
-0.017940268 -0.022415068 0.033464227
-0.014909752 -0.023164615 0.034910478
0.014816463 -0.022300906 0.03496033
0.017665943 -0.022796042 0.033660777
0.022200236 -0.023481429 0.032165255
0.027701544 -0.024500009 0.032632787
0.032985412 -0.023371514 0.032260783
0.032599747 -0.021876445 0.029774126
-0.036237966 -0.017629156 0.031142324
-0.032267425 -0.017367298 0.033141322
-0.02168031 -0.017502308 0.031078236
-0.017399706 -0.017404418 0.033579845
-0.014894811 -0.018578576 0.034918465
0.014791912 -0.015226123 0.03497345
0.017407872 -0.017520944 0.032516092
0.020994643 -0.017204953 0.030030569
0.033729102 -0.017455077 0.034034133
0.034574814 -0.016371895 0.029452039
-0.035988931 -0.012769283 0.031445757
-0.032614298 -0.01277605 0.033182401
-0.021593967 -0.012213679 0.031150585
-0.017620405 -0.012093439 0.031545676
-0.014905288 -0.012986425 0.034912858
0.014816297 -0.013125597 0.034960419
0.017661337 -0.012490517 0.033440031
0.021691622 -0.012991613 0.031064464
0.033807211 -0.012971926 0.033952579
0.036170125 -0.012447613 0.031224983
-0.036105428 -0.0074686143 0.031303797
-0.033972055 -0.0071904152 0.033817057
-0.020944562 -0.0068192719 0.030373454
-0.017530615 -0.0072008818 0.03280361
-0.014923772 -0.0079563614 0.034902982
0.014899578 -0.0088888966 0.034915913
0.016907196 -0.0077659977 0.032360956
0.021538237 -0.0074058613 0.031189844
0.033945777 -0.0069528301 0.032884046
0.035897069 -0.0076253177 0.031557668
-0.035834599 -0.0024192119 0.030053288
-0.034007117 -0.0023846196 0.033748254
-0.020657906 -0.0020461613 0.030695856
-0.017520925 -0.0025413041 0.033515062
-0.014781187 -0.0027431126 0.03497918
0.014867678 -0.002224043 0.03493296
0.01777575 -0.0025755325 0.032673273
0.022014439 -0.0025937383 0.030717619
0.03385796 -0.00237445 0.033903647
0.036061231 -0.0027818065 0.030541206
-0.036223199 0.0024076418 0.031027833
-0.034125812 0.002131246 0.033637069
-0.021691224 0.0028734307 0.03107941
-0.01683322 0.0024910115 0.033398617
-0.014873683 0.0026159394 0.034929752
0.014860138 0.0018609383 0.034936987
0.017675247 0.0025609576 0.033432595
0.021407653 0.0022330559 0.031301424
0.033781964 0.0021797377 0.033983905
0.036059681 0.0023304701 0.031359538
-0.036155995 0.007569897 0.031242196
-0.033746563 0.0070667793 0.033377778
-0.021694329 0.0074434895 0.031078573
-0.017012123 0.0072584106 0.032981236
-0.014947828 0.005721515 0.03489013
0.014856446 0.0080455188 0.034938965
0.017669521 0.0072839768 0.033435661
0.020906817 0.0074109929 0.030105868
0.032492697 0.0073762084 0.033518873
0.036081873 0.0073180147 0.0313325
-0.036220647 0.01290711 0.031163422
-0.034084402 0.012616191 0.033680879
-0.02162038 0.012536722 0.031123642
-0.017229706 0.012551798 0.033670701
-0.014892449 0.013105236 0.034919724
0.01482379 0.011777367 0.034956414
0.016779756 0.012059303 0.032845873
0.021592533 0.012230824 0.031152153
0.033881515 0.012436843 0.03388131
0.036125194 0.012619317 0.031279728
-0.036044672 0.017764073 0.031377841
-0.032842137 0.016850535 0.033842392
-0.020929795 0.016931044 0.029472215
-0.017796909 0.017472826 0.03329052
-0.022534905 0.014589695 0.022315092
0.014915137 0.017389353 0.034907602
0.017539462 0.017314458 0.032680869
0.021629887 0.016930472 0.029996997
0.033931341 0.017631061 0.033823755
0.034932125 0.01740706 0.02993024
-0.036149979 0.022805991 0.030762298
-0.032193083 0.0232981 0.031593401
-0.027423166 0.024500009 0.032343023
-0.022118041 0.023232143 0.032000121
-0.017434997 0.022011751 0.031700794
-0.014902201 0.023011034 0.034914508
0.014808725 0.02186789 0.034964465
0.017924372 0.022737376 0.03329879
0.021832291 0.023423718 0.032191735
0.027592566 0.023959175 0.031504557
0.032000776 0.022887234 0.031445902
0.036159065 0.022499066 0.031128205
-0.030489933 -0.020860484 0.03361427
-0.027291059 -0.023009455 0.037741259
-0.022529589 -0.02395089 0.037187852
-0.016718697 -0.024171963 0.036912762
-0.011940341 -0.022944933 0.0362725
-0.00813278 -0.022674406 0.036835466
-0.0024741401 -0.023171049 0.038219512
0.0025478995 -0.022997169 0.038071074
0.0073392531 -0.022866407 0.037261728
0.012626067 -0.023166597 0.03601376
0.017116129 -0.02433854 0.036504351
0.022227589 -0.023727708 0.036194183
0.027785448 -0.022640042 0.036539581
0.031023247 -0.022765355 0.036125083
-0.031286076 -0.017489277 0.036119983
-0.028274264 -0.017510142 0.038590778
-0.01080813 -0.01645953 0.033094171
-0.0073950388 -0.017143739 0.037113849
-0.0018051037 -0.017456127 0.037246097
0.0027897153 -0.017537804 0.037741859
0.0076042451 -0.017376747 0.037102479
0.012139758 -0.017631598 0.035835579
0.027781902 -0.017578436 0.038224217
0.031193372 -0.017297838 0.036196068
-0.031373177 -0.012309499 0.036048498
-0.028157635 -0.012482264 0.037684884
-0.012306349 -0.01220386 0.034893245
-0.0077485214 -0.012387705 0.035944466
-0.003049013 -0.012045942 0.036558148
0.0019993393 -0.012414615 0.037665892
0.0076935841 -0.012561551 0.037096787
0.01240999 -0.012370109 0.035713073
0.028213501 -0.012516234 0.038640462
0.031515509 -0.012657547 0.03593168
-0.031157814 -0.0077847056 0.036225248
-0.027412804 -0.0072346474 0.03789527
-0.01240173 -0.0073729795 0.035755869
-0.006719003 -0.0072740396 0.03678536
-0.0025864495 -0.0065992698 0.036867987
0.0025456909 -0.0072461814 0.037749309
0.0079010846 -0.0075950124 0.037037302
0.012383305 -0.0073228423 0.035761785
0.028225768 -0.0075313752 0.03863164
0.031144259 -0.0072758216 0.036236372
-0.030281616 -0.0018997242 0.034372758
-0.028670544 -0.0022626447 0.037986677
-0.012511542 -0.0024654579 0.035719369
-0.0068377047 -0.0022614892 0.036478583
-0.0024365385 -0.0025786383 0.03776006
0.0022344473 -0.002738802 0.037779965
0.008063524 -0.0023402497 0.036434986
0.011591259 -0.0029683383 0.035275597
0.028115412 -0.002304849 0.037215274
0.031390421 -0.0027522512 0.036034338
-0.031233316 0.0022805904 0.036163278
-0.028455317 0.0026966841 0.037931837
-0.012651877 0.0025099751 0.035367675
-0.0075195143 0.0027112402 0.037116274
-0.0020590906 0.0020636709 0.037363499
0.0020479716 0.0022195599 0.037527032
0.0065864166 0.00233292 0.035265561
0.012461929 0.0026196304 0.035737023
0.028409593 0.0026651672 0.038479023
0.030052608 0.0027182731 0.032703746
-0.030259008 0.0068304907 0.034455195
-0.028584668 0.0075599249 0.035965472
-0.011947454 0.0072905314 0.034601755
-0.007696317 0.0074398764 0.035955939
-0.0029141952 0.007781521 0.037595678
0.0024105534 0.0073949546 0.03776262
0.0073099025 0.007444086 0.037167471
0.012217765 0.007286292 0.035800107
0.026985783 0.0076893857 0.038194977
0.031403478 0.0077597415 0.036023628
-0.030698525 0.012377807 0.034788538
-0.028216358 0.011758469 0.038492508
-0.012191712 0.012285221 0.035657689
-0.0072449706 0.011994635 0.036328882
-0.0026461275 0.012539756 0.037739426
0.002494199 0.012453894 0.037701324
0.0067823855 0.01246478 0.03659359
0.010889837 0.011793639 0.035376638
0.0285543 0.012208556 0.038152061
0.031071249 0.012396591 0.033844616
-0.0303709 0.016563065 0.034977872
-0.028222242 0.017540691 0.038446851
-0.01251911 0.017510755 0.035719693
-0.0074913544 0.017505771 0.037128165
-0.0023287318 0.017581338 0.037770677
0.0025387243 0.016451919 0.037506711
0.0073813754 0.01714652 0.03716024
0.012190162 0.017459475 0.035820287
0.028066188 0.016655548 0.037407335
0.031363383 0.01693299 0.035217367
-0.031592283 0.021162882 0.034442596
-0.028106499 0.023303207 0.037570201
-0.022680739 0.023510193 0.036301635
-0.018243706 0.024011906 0.036990296
-0.012679995 0.022859704 0.036301795
-0.0076204534 0.02277229 0.037283361
-0.0017585036 0.022313571 0.037859533
0.0030339721 0.022570899 0.037673049
0.0067494442 0.022016171 0.036302563
0.012323352 0.023040961 0.036184423
0.015404781 0.023240035 0.035371482
0.021794155 0.024500011 0.037407544
0.027839575 0.023085074 0.037244719
0.031382516 0.022612298 0.035930432
-0.025690669 -0.022431737 0.040417634
