# .PCD v0.7 - Point Cloud Data file format
VERSION 0.7
FIELDS x y z
SIZE 4 4 4
TYPE F F F
COUNT 1 1 1
WIDTH 1269
HEIGHT 1
VIEWPOINT 0 0 0 1 0 0 0
POINTS 1269
DATA ascii
-0.012479594 0.0075749434 -0.031999975
-0.0073294165 0.0076601021 -0.031999979
-0.0024071436 0.0077496134 -0.031999979
0.0023326841 0.0073747155 -0.031999979
0.0072754472 0.0074612275 -0.03199999
0.012480338 0.0078436639 -0.031999979
0.017704826 0.0059784162 -0.031996507
0.02246958 0.0074176416 -0.031999998
0.027279546 0.0073771952 -0.031999972
0.030825567 0.0074024061 -0.031415887
-0.030853618 0.012637153 -0.031146396
-0.027597221 0.012464836 -0.031999983
-0.022656076 0.012636588 -0.03199999
-0.017425697 0.012439847 -0.031999983
-0.01227053 0.012265871 -0.031999987
-0.0071501834 0.012383725 -0.031999979
-0.0027629333 0.01264182 -0.031999979
0.0024037147 0.013100177 -0.031999983
0.0074834093 0.012668432 -0.031999972
0.012496165 0.012733419 -0.031999994
0.017824722 0.01263794 -0.031999987
0.022728117 0.012580096 -0.031999979
0.027296925 0.012376937 -0.031999987
0.030939316 0.012317101 -0.031189548
-0.030888777 0.017881848 -0.031236872
-0.027447518 0.017456714 -0.031999983
-0.022303227 0.017246237 -0.031999975
-0.01746499 0.01730283 -0.031999979
-0.01234721 0.017318385 -0.031999979
-0.007641938 0.017369915 -0.031999979
-0.0025502124 0.017468309 -0.031999975
0.0026594731 0.017513976 -0.031999979
0.0073142117 0.017624261 -0.031999987
0.012543918 0.017124092 -0.031999972
0.017264633 0.017453128 -0.031999987
0.022497745 0.017255532 -0.031999987
0.027420161 0.017826797 -0.031999987
0.030891538 0.017967429 -0.031271774
-0.030878056 0.02242001 -0.031065516
-0.02746213 0.022464398 -0.031999975
-0.022452582 0.022200141 -0.031999994
-0.017467655 0.022575872 -0.03199999
-0.01222319 0.02259836 -0.031999987
-0.0069726896 0.021272138 -0.031996239
-0.0025448392 0.022328924 -0.031999987
0.002581229 0.022186989 -0.031999979
0.007492993 0.022975158 -0.03199999
0.012459566 0.022486739 -0.031999983
0.017120184 0.022348654 -0.031999975
0.02258479 0.022394916 -0.031999975
0.027597936 0.022615034 -0.031999979
0.030881014 0.022381555 -0.031318054
-0.030816037 0.027476911 -0.031334292
-0.027271627 0.027449481 -0.031999983
-0.022456584 0.027477158 -0.031999983
-0.017577723 0.027619112 -0.03199999
-0.012555826 0.027560025 -0.031999979
-0.0073620994 0.027750695 -0.031999983
-0.0025011727 0.027091667 -0.03199999
0.0025451004 0.027516074 -0.031999975
0.0073263664 0.027603708 -0.031999979
0.0125679 0.027255466 -0.031999983
0.017600894 0.02765125 -0.031999979
0.021491544 0.026704462 -0.031999983
0.027667105 0.027622815 -0.031999983
0.030834962 0.027092913 -0.031265587
-0.030793658 0.032195047 -0.031446602
-0.027832562 0.032543834 -0.031999975
-0.022297692 0.032360137 -0.031999979
-0.017510053 0.032072477 -0.031999979
-0.012199075 0.032923121 -0.031999975
-0.007492872 0.032230504 -0.031999979
-0.002490127 0.032457478 -0.031999979
0.0022565005 0.03245157 -0.032000002
0.0075848466 0.032373313 -0.031999994
0.0124968 0.032688901 -0.031999979
0.017570805 0.032448307 -0.031999979
0.022573693 0.032517288 -0.031999983
0.027606912 0.032185867 -0.031999975
0.030795189 0.032154579 -0.031423222
-0.030822966 0.037568066 -0.031234216
-0.02772416 0.037630297 -0.031999975
-0.022504868 0.037992641 -0.031999975
-0.017156001 0.03780435 -0.031999994
-0.012557576 0.037639305 -0.031999975
-0.0073159263 0.037038088 -0.031999983
-0.0027260149 0.037467714 -0.031999994
0.002657468 0.037430823 -0.031999987
0.0074466225 0.037213504 -0.031999979
0.012667508 0.037212152 -0.031999983
0.017823456 0.037196141 -0.031999983
0.022421025 0.037887871 -0.031999979
0.027136153 0.037597269 -0.031999983
0.030823449 0.037270069 -0.031374302
-0.030927818 0.042577289 -0.031416308
-0.027357111 0.042561553 -0.031999975
-0.022734279 0.042495687 -0.031999987
-0.017677272 0.042463638 -0.031999975
-0.012572488 0.042474709 -0.031999994
-0.0075073233 0.042561699 -0.031999987
-0.0024186105 0.042411879 -0.03199999
0.0026407759 0.042621825 -0.031999987
0.0075718951 0.043000914 -0.031999983
0.012773571 0.042594228 -0.031999987
0.017376063 0.042201076 -0.031999979
0.022343835 0.042288397 -0.031999975
0.027685503 0.042561427 -0.031999983
0.030160248 0.042245302 -0.031324863
-0.028964408 0.046611741 -0.031376291
-0.027313164 0.047867335 -0.031999979
-0.022357626 0.047422182 -0.031999979
-0.017264348 0.047424555 -0.031999979
-0.012456056 0.047242697 -0.031999983
-0.0077820723 0.047712293 -0.031999983
-0.0021576439 0.04754512 -0.03199999
0.0024933559 0.047447853 -0.03199999
0.0075952006 0.047335651 -0.031999987
0.01230332 0.047704831 -0.031999979
0.017514465 0.047492761 -0.031999975
0.022511631 0.047528177 -0.031999975
0.027726052 0.046216328 -0.03198928
0.030852806 0.047537901 -0.031237468
-0.030867772 0.052537173 -0.031210896
-0.027798185 0.052692868 -0.031999987
-0.022410529 0.052521117 -0.031999987
-0.01728663 0.0526767 -0.031999983
-0.012650134 0.052693166 -0.031999987
-0.007701938 0.052497514 -0.031999987
-0.0027695922 0.052361753 -0.031999979
0.0023020215 0.051692456 -0.031999979
0.0075632115 0.05278397 -0.031999983
0.012608772 0.05257621 -0.031999975
0.017374886 0.052535426 -0.031999972
0.0225916 0.052791376 -0.031999975
0.027570365 0.051795855 -0.031999979
0.030887194 0.052691661 -0.031414945
-0.03094222 0.057668123 -0.031280629
-0.027542656 0.057567798 -0.031952485
-0.022496926 0.057669979 -0.03198937
-0.017351668 0.057487749 -0.031976614
-0.012269174 0.057801954 -0.031875223
-0.0077512306 0.056543149 -0.031934638
-0.0025534718 0.057565123 -0.031943139
0.0024410621 0.058079164 -0.031844839
0.0076925671 0.057602078 -0.031904854
0.012445285 0.057842802 -0.031843271
0.017790873 0.057113286 -0.031914834
0.022626137 0.057392448 -0.031864591
0.027455522 0.057474319 -0.031894498
0.030908426 0.057585523 -0.031233164
-0.030438069 0.059999999 -0.03115223
-0.02728375 0.059999987 -0.030897645
-0.022675153 0.059999995 -0.031155407
-0.017364386 0.059999995 -0.030870961
-0.012685028 0.059999995 -0.030701669
-0.007726192 0.060000002 -0.031196874
-0.0023267954 0.059999987 -0.030852484
0.002229485 0.059999995 -0.031093339
0.006805785 0.060000006 -0.030953616
0.012768079 0.060000006 -0.03120059
0.017177185 0.059999991 -0.031119823
0.022716476 0.059999991 -0.031094505
0.027367169 0.059999991 -0.030963708
0.030366533 0.060000002 -0.031048264
-0.030942222 -0.057867676 -0.027194036
-0.026341472 -0.059600651 -0.027634343
-0.021938939 -0.059999965 -0.027667848
-0.01731951 -0.059970729 -0.02751329
-0.012333797 -0.059999958 -0.027537221
-0.0077063427 -0.059999961 -0.027707569
-0.002568295 -0.059999961 -0.027521219
0.0026632096 -0.059999954 -0.027710421
0.0073906621 -0.059999958 -0.027101159
0.012543557 -0.059999958 -0.027562613
0.017265305 -0.05892048 -0.027534619
0.022707807 -0.059999961 -0.027631139
0.026677931 -0.058589038 -0.027531335
0.030919069 -0.057774115 -0.027518407
-0.031000011 -0.052252352 -0.027832191
0.031000005 -0.052306101 -0.027404167
-0.030999999 -0.047269765 -0.02741893
0.030999988 -0.047446024 -0.027495252
-0.031000013 -0.042562313 -0.027780237
0.030206965 -0.042017691 -0.027871136
-0.031000005 -0.03728253 -0.027348034
0.030999998 -0.037538342 -0.02753083
-0.030083338 -0.031477433 -0.027836261
0.031000014 -0.032804705 -0.027534733
-0.030999994 -0.027742686 -0.027738476
0.030999999 -0.027406992 -0.027498616
-0.031000013 -0.022438716 -0.027581312
0.031000014 -0.022487743 -0.027436437
-0.031000013 -0.017628217 -0.027344251
0.031000007 -0.0177524 -0.02729604
-0.031000005 -0.012486068 -0.027426669
0.031000014 -0.012333907 -0.027535774
-0.031000013 -0.0075397133 -0.027730895
0.031000013 -0.0074302931 -0.027205057
-0.031000013 -0.0023672455 -0.027402086
0.030999998 -0.0025827519 -0.027479827
-0.031000001 0.0024932039 -0.027600301
0.031000013 0.0023164183 -0.027295882
-0.030999996 0.0077625834 -0.027578697
0.030999996 0.0076630893 -0.027472738
-0.030367997 0.012992406 -0.027613688
0.031000013 0.011852479 -0.027371934
-0.030999999 0.01755086 -0.027314369
0.031000013 0.017581224 -0.027506949
-0.031000013 0.022462424 -0.027633637
0.031000005 0.022498578 -0.027564842
-0.030873096 0.027903678 -0.027462887
0.030999999 0.027537262 -0.02715992
-0.031000005 0.032024134 -0.027294545
0.030071931 0.031987883 -0.027604586
-0.031000013 0.037566006 -0.027674697
0.030999996 0.037668891 -0.027457429
-0.030075919 0.040733632 -0.027466862
0.031000013 0.042459413 -0.027491048
-0.031000013 0.047240026 -0.027542153
0.030820347 0.045683037 -0.027344203
-0.031000011 0.052366741 -0.027506515
0.030935317 0.051499259 -0.027324492
-0.031000013 0.057833981 -0.027737178
-0.02785177 0.060000002 -0.0265067
-0.022986399 0.060000002 -0.027954729
-0.017801438 0.059999999 -0.028616555
-0.012016577 0.056782451 -0.028256685
-0.0079654725 0.059999995 -0.028017657
-0.0024275987 0.059999999 -0.027087094
0.0026516011 0.059999999 -0.027774213
0.0076191896 0.059999991 -0.027045552
0.012632067 0.059999991 -0.027513603
0.014387973 0.057791907 -0.027376549
0.021884231 0.059999999 -0.027301613
0.027712412 0.059999995 -0.027843382
0.030322349 0.055943191 -0.02763187
-0.030633379 0.059999999 -0.027008025
-0.027856344 0.059999961 -0.027864454
-0.02251523 0.058651224 -0.027530907
-0.016597245 0.059699036 -0.027319411
-0.012757397 0.059999958 -0.02752731
-0.0076447041 0.059999969 -0.027555088
-0.0024950395 0.059999961 -0.027138265
0.0022672529 0.059999958 -0.027434669
0.0075825625 0.059999965 -0.027449984
0.012503255 0.059999961 -0.027411558
0.017683014 0.059999965 -0.027656956
0.022446318 0.059999958 -0.027474411
0.026276238 0.057437629 -0.027648764
0.030403478 0.060000002 -0.027889941
-0.030914735 -0.05804738 -0.022406371
-0.027467754 -0.059999958 -0.022597585
-0.022377875 -0.059057888 -0.022853658
-0.017547514 -0.059999958 -0.022650968
-0.012812054 -0.059999958 -0.022206465
-0.0075820726 -0.059999954 -0.022638647
-0.002706009 -0.059999958 -0.022859346
0.0023517655 -0.059999961 -0.022553999
0.0071913032 -0.059999958 -0.022654722
0.012776166 -0.059999961 -0.02256179
0.01743043 -0.059999958 -0.022723664
0.022700278 -0.059999961 -0.022584694
0.027388608 -0.059999961 -0.022600861
0.030928455 -0.057658456 -0.022683876
-0.030999992 -0.052369483 -0.022320909
0.031000011 -0.052539196 -0.022636743
-0.030999996 -0.047261771 -0.022662995
0.031000011 -0.047439452 -0.022511218
-0.031000014 -0.042606395 -0.022391573
0.031000007 -0.042435288 -0.022417743
-0.030999996 -0.037603684 -0.022846386
0.031000013 -0.037417643 -0.022632027
-0.031000013 -0.03273689 -0.022269774
0.031000005 -0.032303724 -0.022421585
-0.029983617 -0.027297636 -0.022624351
0.031000013 -0.027594099 -0.02268056
-0.031000013 -0.02245272 -0.022166343
0.031000014 -0.02230748 -0.022297768
-0.031000014 -0.017575098 -0.022295089
0.030661941 -0.01782464 -0.022920586
-0.031000011 -0.012565679 -0.022676865
0.031000011 -0.012471259 -0.022238685
-0.031000009 -0.0074795289 -0.022879379
0.031000013 -0.0074400245 -0.022416057
-0.031000013 -0.0025767901 -0.022315228
0.031000009 -0.0027050166 -0.022516767
-0.031000005 0.0026261522 -0.022411006
0.031000013 0.0025886083 -0.022355225
-0.031000011 0.0074358783 -0.022627199
0.030513166 0.0076836944 -0.022558233
-0.031000013 0.012487309 -0.022606477
0.030177603 0.012707492 -0.022787672
-0.030999994 0.017277082 -0.022638526
0.030165264 0.01741383 -0.022572888
-0.031000013 0.022530155 -0.022249158
0.031000013 0.022890158 -0.022263063
-0.030999999 0.02752389 -0.022745548
0.030999994 0.027486674 -0.022708606
-0.030765368 0.032891776 -0.022959188
0.031000013 0.03256138 -0.021840293
-0.031000011 0.037188552 -0.022604894
0.031000001 0.037373558 -0.02251696
-0.031000013 0.042561356 -0.022520943
0.030999994 0.042576529 -0.022547642
-0.031000011 0.047459409 -0.022552378
0.030371659 0.046893455 -0.022796802
-0.031000014 0.052401844 -0.02241719
0.031000013 0.053183425 -0.022390647
-0.029892867 0.055490363 -0.022426302
-0.027009774 0.059999995 -0.021571293
-0.022702007 0.059999999 -0.021851057
-0.017231477 0.059999999 -0.022456799
-0.012658127 0.059999999 -0.022396326
-0.0070111291 0.059999999 -0.022764152
-0.0020942192 0.059999999 -0.023062471
0.002744511 0.060000002 -0.022359619
0.0084426245 0.059999991 -0.022172986
0.012191187 0.059999987 -0.023091385
0.017907601 0.059999991 -0.021997722
0.022709796 0.059999999 -0.022684043
0.026865702 0.059999999 -0.021614183
0.030996421 0.057510138 -0.02255547
-0.030497635 0.060000002 -0.022848543
-0.027463242 0.059999961 -0.022891266
-0.022504754 0.059999958 -0.022745378
-0.017142216 0.059999965 -0.02264064
-0.011377144 0.058570303 -0.022768164
-0.0075221788 0.059999965 -0.022505872
-0.0025935557 0.059999965 -0.022734819
0.0029138264 0.059999961 -0.022730103
0.0079019805 0.057142828 -0.022755133
0.012397664 0.059999965 -0.022804748
0.017371655 0.059999961 -0.022498704
0.02270502 0.059999961 -0.022868741
0.027563918 0.059999969 -0.022490323
0.030463686 0.059999995 -0.021215566
-0.030233193 -0.057708696 -0.017395098
-0.027727863 -0.059999965 -0.017850274
-0.02264405 -0.059999958 -0.017359028
-0.017434333 -0.059999961 -0.01745942
-0.013409144 -0.057894699 -0.017765943
-0.0073715695 -0.059999958 -0.017617922
-0.002488435 -0.059999958 -0.01741492
0.0026239795 -0.058414433 -0.017795432
0.0076852692 -0.059999958 -0.01750629
0.012555077 -0.059999958 -0.017669581
0.017472098 -0.059999958 -0.017196544
0.021027619 -0.058360241 -0.018308163
0.027644202 -0.059999965 -0.017526884
0.030934032 -0.057915222 -0.016954625
-0.031000013 -0.052385427 -0.017375771
0.030999999 -0.052674286 -0.017296899
-0.03035157 -0.045917638 -0.017479455
0.031000013 -0.047307495 -0.017370185
-0.030744392 -0.042543288 -0.017897936
0.031000011 -0.042427652 -0.017396687
-0.030945478 -0.037896361 -0.017460998
0.030634722 -0.036844831 -0.017573047
-0.029853309 -0.032247178 -0.017704779
0.030329922 -0.031381775 -0.017576752
-0.031000014 -0.027506085 -0.017115669
0.031000009 -0.027527574 -0.017550621
-0.031000013 -0.022387134 -0.017160045
0.03028891 -0.021822965 -0.017857749
-0.03010923 -0.016211104 -0.017800856
0.030999986 -0.017377758 -0.017455362
-0.031000013 -0.012581928 -0.017329574
0.031000014 -0.012785968 -0.017289773
-0.030164933 -0.0070432089 -0.017582735
0.031000013 -0.0076151523 -0.017669961
-0.031000007 -0.0024526254 -0.01753532
0.030999999 -0.002345023 -0.017337354
-0.031000014 0.0023491734 -0.017514359
0.031000001 0.002130345 -0.017282782
-0.030999992 0.0074022859 -0.01740293
0.031000011 0.0073962738 -0.017119406
-0.030785041 0.013309213 -0.017580422
0.030999999 0.012797477 -0.017743884
-0.031000013 0.017769927 -0.017363913
0.030999996 0.017527493 -0.017263189
-0.031000013 0.022752075 -0.017627891
0.030349055 0.021870844 -0.017578999
-0.031000011 0.027615616 -0.017419124
0.031000014 0.027196333 -0.017528351
-0.029949164 0.031405725 -0.017479792
0.030995175 0.031647146 -0.017321
-0.031000013 0.037913755 -0.017317049
0.031000003 0.037497517 -0.017589319
-0.031000007 0.042885326 -0.017746227
0.031000013 0.042604405 -0.017608168
-0.030855 0.047203809 -0.017970053
0.031000013 0.046797577 -0.017283145
-0.031000001 0.0524153 -0.017356671
0.031000013 0.052635081 -0.017528396
-0.030984208 0.057810921 -0.017419295
-0.026849501 0.060000002 -0.01666696
-0.022400428 0.059999999 -0.017987108
-0.018371014 0.059999999 -0.016562181
-0.012531059 0.059999999 -0.017480269
-0.0074279429 0.059999999 -0.01732045
-0.0027792503 0.046873469 -0.019320037
0.0020755529 0.059999987 -0.0168452
0.008321655 0.059999987 -0.01784423
0.012158477 0.05999998 -0.017688164
0.017253969 0.05999998 -0.017323431
0.022646319 0.060000002 -0.017149378
0.027124623 0.059999999 -0.017299363
0.030993167 0.057595406 -0.017809322
-0.030422937 0.060000002 -0.017555378
-0.02726049 0.059999965 -0.017649645
-0.022309164 0.058070432 -0.017625319
-0.017825833 0.058429543 -0.018035464
-0.012433609 0.059999965 -0.017468952
-0.0066636261 0.058412101 -0.018199716
-0.0025236418 0.059999965 -0.017569264
0.0023785017 0.059999965 -0.017209508
0.007282129 0.059999973 -0.016722217
0.012038563 0.059999973 -0.017275775
0.017256886 0.059999965 -0.017663261
0.022698926 0.059999965 -0.017718976
0.027436119 0.059999965 -0.017361002
0.030281933 0.060000006 -0.017170304
-0.030899476 -0.058014985 -0.012317505
-0.027611792 -0.059999958 -0.01212601
-0.022600479 -0.059999958 -0.012523055
-0.016454905 -0.057497926 -0.012782091
-0.012348203 -0.059999958 -0.01247146
-0.0079392809 -0.058032744 -0.012776749
-0.0026981384 -0.059999961 -0.01219573
0.0024342679 -0.059999958 -0.012625784
0.0071733985 -0.059999954 -0.012453117
0.012586294 -0.059999961 -0.012370219
0.017584005 -0.059999958 -0.0125812
0.022606768 -0.059999958 -0.012590098
0.027697643 -0.059999958 -0.011987979
0.030870158 -0.058047395 -0.012403746
-0.031000009 -0.052611966 -0.012266664
0.031000005 -0.052565776 -0.012371056
-0.031000011 -0.047430471 -0.01245359
0.031000009 -0.047714114 -0.012171187
-0.031000011 -0.042828288 -0.012622742
0.031000011 -0.042622361 -0.012227279
-0.031000007 -0.037304629 -0.012540495
0.030000011 -0.036678359 -0.012755039
-0.028239241 -0.029262772 -0.013278777
0.030854765 -0.032410845 -0.012992779
-0.030459894 -0.027788728 -0.01274657
0.030580796 -0.027000725 -0.012798967
-0.031000013 -0.0227936 -0.012558534
0.030999994 -0.022349177 -0.012499213
-0.030998193 -0.016709263 -0.012657857
0.031000013 -0.017473865 -0.012685329
-0.03094006 -0.012132707 -0.013059898
0.030184209 -0.01251204 -0.012521123
-0.031000013 -0.0076846788 -0.012447505
0.031000005 -0.0071006473 -0.012724562
-0.031000009 -0.0023223739 -0.012595845
0.030999999 -0.0025579401 -0.01262393
-0.031000007 0.0024946716 -0.012655188
0.030999996 0.0026847108 -0.012558689
-0.030568117 0.0081320805 -0.012262955
0.031000011 0.0070473514 -0.012441733
-0.031000013 0.012599502 -0.012749549
0.030987728 0.012595177 -0.012772582
-0.031000013 0.01755075 -0.012397058
0.030358385 0.015825838 -0.012859327
-0.031000013 0.022691708 -0.012446819
0.031000009 0.022862509 -0.012102157
-0.031000013 0.02725869 -0.012418846
0.031000013 0.027353298 -0.012477405
-0.029851863 0.032288957 -0.012716938
0.030262478 0.032612473 -0.012699482
-0.031000005 0.037714988 -0.01236813
0.030621978 0.037768986 -0.012857075
-0.031000013 0.042513773 -0.012350363
0.031000011 0.042865828 -0.012558769
-0.031000014 0.047648631 -0.012150514
0.031000009 0.047366969 -0.012630694
-0.03057671 0.05036477 -0.012642076
0.031000007 0.052562278 -0.012394398
-0.030965516 0.057502478 -0.012745504
-0.02761716 0.059999995 -0.012639155
-0.02223062 0.059999991 -0.012480453
-0.017183412 0.059999999 -0.01243779
-0.012239842 0.059999999 -0.012721016
-0.0074854465 0.059999987 -0.012838067
-0.0023120141 0.059999995 -0.012363578
0.0025328617 0.059999984 -0.012468476
0.0062520946 0.057513669 -0.013424031
0.012765005 0.05999998 -0.012368332
0.017230773 0.059999987 -0.012191554
0.01981521 0.058449969 -0.013627376
0.027894307 0.059999987 -0.012207526
0.030969324 0.057450686 -0.012395726
-0.030519821 0.060000006 -0.012732418
-0.027554087 0.059999965 -0.012715689
-0.022175116 0.059999973 -0.012324908
-0.017856363 0.059999969 -0.012417597
-0.011583099 0.059999969 -0.01342399
-0.0075087091 0.059999969 -0.01238354
-0.0027040993 0.059999969 -0.012227702
0.0022612058 0.059999965 -0.01204004
0.0075080646 0.059999965 -0.01240273
0.012077271 0.059999969 -0.012372138
0.017277192 0.059999969 -0.012283851
0.021691522 0.057311237 -0.013046885
0.027547415 0.059999965 -0.012508914
0.030440817 0.060000002 -0.01266812
-0.030926181 -0.058103144 -0.0077787088
-0.027438838 -0.059999958 -0.0074662729
-0.022265103 -0.059999958 -0.0075118523
-0.017719075 -0.059999958 -0.0077586109
-0.01215835 -0.056758795 -0.00849427
-0.0076329983 -0.059999954 -0.0076197907
-0.0023833767 -0.058507584 -0.0081631308
0.0023956543 -0.059999958 -0.0075364718
0.0076076481 -0.059999961 -0.007452053
0.012612642 -0.059999961 -0.0073451553
0.017766401 -0.058632188 -0.007776055
0.022454333 -0.059999961 -0.0072302721
0.026667131 -0.059337899 -0.0077468464
0.030927815 -0.057901032 -0.0075155669
-0.030999999 -0.052593373 -0.0073856018
0.030999981 -0.052155599 -0.0073863058
-0.030235296 -0.045606345 -0.0073392601
0.030389572 -0.046802666 -0.0079112565
-0.030999998 -0.042518348 -0.0076128356
0.031000003 -0.042454906 -0.0075053377
-0.030999979 -0.036568567 -0.007426979
0.030938309 -0.03676049 -0.0076882415
-0.029892867 -0.031691916 -0.0076749641
0.031000009 -0.032698952 -0.0074551385
-0.031000014 -0.027639709 -0.0074652047
0.030999981 -0.027497424 -0.0073122424
-0.030999999 -0.02254786 -0.0074245399
0.031000013 -0.022553463 -0.0076000821
-0.030947968 -0.016176779 -0.0077826986
0.031000013 -0.017825183 -0.0075540775
-0.031000007 -0.01283586 -0.0075594783
0.031000005 -0.012233838 -0.0074758674
-0.031000013 -0.0077574607 -0.0075434861
0.031000011 -0.0074555851 -0.0071577881
-0.031000013 -0.0025701586 -0.0075882371
0.030999977 -0.0024529891 -0.0074067544
-0.030999992 0.002565328 -0.0073506138
0.030066129 0.0015746811 -0.0081352061
-0.030999996 0.0072641107 -0.007686255
0.029217709 0.0066149458 -0.0078304764
-0.031000003 0.012620458 -0.0072887763
0.031000013 0.011889935 -0.0075728991
-0.031000013 0.017119968 -0.007334989
0.029555427 0.017204991 -0.0080884919
-0.031000014 0.022465527 -0.0073950081
0.030999994 0.022245588 -0.0075342613
-0.031000013 0.027648816 -0.0072673052
0.030800594 0.026915679 -0.0078058969
-0.031000009 0.032937996 -0.0076502534
0.031000011 0.032363769 -0.0078548379
-0.030999999 0.037727196 -0.0074174851
0.030519189 0.036333896 -0.0078905346
-0.031000013 0.042669326 -0.0073557231
0.031000009 0.042219162 -0.0072863451
-0.031000009 0.047258355 -0.007575938
0.031000014 0.047375455 -0.0073086228
-0.031000005 0.052549955 -0.0072376356
0.031000007 0.052336331 -0.0073672743
-0.030954218 0.057866246 -0.0076430282
-0.027474031 0.059999995 -0.0076413103
-0.022016738 0.05999998 -0.0078884251
-0.01805828 0.059999987 -0.0070900572
-0.012689968 0.059999991 -0.0070232241
-0.0080376854 0.059999999 -0.0075448216
-0.0022241045 0.059999999 -0.0073702396
0.0024076863 0.059999984 -0.0072077117
0.0075672995 0.059999987 -0.00750256
0.012594027 0.059999999 -0.0072842767
0.017859804 0.059999976 -0.0077960533
0.022406248 0.059999984 -0.0074578165
0.027562618 0.059999987 -0.0075807758
0.030991072 0.057746969 -0.0076172361
-0.03039813 0.060000002 -0.0070456956
-0.026284171 0.058380123 -0.007987177
-0.022198174 0.059110444 -0.0077729234
-0.017666925 0.059999969 -0.0077064624
-0.012337241 0.059999969 -0.0075994711
-0.0077658738 0.059999958 -0.0074571515
-0.0025452855 0.059999961 -0.0077086743
0.0027076926 0.059999965 -0.0075928243
0.0067592706 0.058941435 -0.007589859
0.012309738 0.059999969 -0.0074910773
0.017252989 0.05999998 -0.007300707
0.022301119 0.059999965 -0.0076175341
0.027520072 0.059999965 -0.0071625737
0.03046645 0.060000006 -0.0081028631
-0.030940374 -0.057327673 -0.0026480181
-0.027706299 -0.059999965 -0.0026781184
-0.022203675 -0.059401672 -0.003239064
-0.017407684 -0.058260828 -0.0030353705
-0.012597742 -0.059999958 -0.0027114921
-0.0075645763 -0.059999958 -0.0026312189
-0.0023946681 -0.059999954 -0.0022741088
0.0016727634 -0.059973206 -0.0031154992
0.0071297023 -0.059881557 -0.0031660437
0.01223142 -0.059999961 -0.002296576
0.017667159 -0.059999958 -0.0022454991
0.022355936 -0.055856347 -0.0031437429
0.0273367 -0.059999958 -0.0026263597
0.030864608 -0.058115967 -0.0025499566
-0.031000005 -0.052325312 -0.0024905507
0.031000014 -0.05235656 -0.0027115862
-0.030985614 -0.046924006 -0.0028068866
0.031000014 -0.04769529 -0.0021035196
-0.030948812 -0.042478699 -0.0032177323
0.031000011 -0.042438518 -0.0025679136
-0.030879162 -0.037440121 -0.0026665167
0.031000013 -0.037923548 -0.0030019276
-0.030999999 -0.032509543 -0.0029006579
0.031000009 -0.032418173 -0.0022956342
-0.031000013 -0.027655128 -0.0024429385
0.030708892 -0.026225831 -0.0028993837
-0.03048473 -0.021541381 -0.003052318
0.031000011 -0.022494981 -0.0026944678
-0.030431762 -0.017830146 -0.0032301687
0.030293748 -0.016479954 -0.0029540514
-0.031000009 -0.01246898 -0.0026193813
0.031000014 -0.012780865 -0.0026288563
-0.031000011 -0.00717605 -0.0026144702
0.030999999 -0.0074352082 -0.0021901447
-0.031000001 -0.0026945847 -0.0025629539
0.030999996 -0.0024904809 -0.0026557092
-0.031000003 0.0024578343 -0.0024698689
0.030946339 0.002881892 -0.0031669131
-0.031000013 0.0071337395 -0.0022597208
0.031000014 0.0076068179 -0.0024697636
-0.030823376 0.012264753 -0.003199195
0.02932732 0.012880402 -0.0033173545
-0.031000013 0.017322933 -0.0025094575
0.030333286 0.018476227 -0.0023643139
-0.031000013 0.022481691 -0.0025404887
0.031000013 0.022312751 -0.0024554986
-0.030990854 0.027946889 -0.0026372627
0.030990053 0.026726514 -0.0025115509
-0.031000007 0.032404065 -0.0024563447
0.031000003 0.032336961 -0.0024346716
-0.030490559 0.035942204 -0.0029847603
0.029950386 0.037392955 -0.0028732982
-0.031000009 0.042521399 -0.002470738
0.031000003 0.042465694 -0.0024902129
-0.029761842 0.04818292 -0.0033222218
0.030059984 0.045838248 -0.0029361085
-0.031000011 0.052306298 -0.002213537
0.030068167 0.050941586 -0.002889042
-0.030997442 0.057825603 -0.0026331192
-0.027546128 0.059999991 -0.0023682015
-0.023093078 0.058058042 -0.0035760347
-0.014813876 0.059184082 -0.0034576403
-0.012028795 0.059999987 -0.0028246557
-0.0060622361 0.056275181 -0.0033270335
-0.0024552778 0.059999984 -0.002674052
0.0023509562 0.055545144 -0.0054138573
0.0075351638 0.059999995 -0.0027659878
0.012517651 0.059999999 -0.0027650769
0.017386045 0.059999995 -0.0022301076
0.022533813 0.060000002 -0.0026069223
0.027574232 0.060000002 -0.0031263814
0.030997777 0.057320572 -0.002700736
-0.030561795 0.060000006 -0.0028251715
-0.026885331 0.058994431 -0.002669848
-0.022856954 0.059999969 -0.0022125209
-0.017681444 0.059999969 -0.0025894151
-0.01285018 0.059999965 -0.0025773947
-0.0075199483 0.059999958 -0.0024477534
-0.0025079115 0.059999961 -0.0024077944
0.0022761042 0.059999965 -0.0024374428
0.0071424679 0.059999969 -0.0022290291
0.012533508 0.059999965 -0.0025589219
0.01756173 0.059999969 -0.0025545359
0.022505034 0.059999961 -0.0026310342
0.02756658 0.059999961 -0.0023945074
0.030683553 0.060000002 -0.0028648551
-0.030929396 -0.058056016 0.0025862388
-0.027526435 -0.059999954 0.0026369137
-0.022432944 -0.059999961 0.0025745581
-0.016804785 -0.058623344 0.0023324571
-0.012451379 -0.059999958 0.002535589
-0.0073394878 -0.059999961 0.0027068418
-0.0025882607 -0.059999954 0.0029939241
0.0030790998 -0.05848743 0.0024478848
0.007615352 -0.059999954 0.0027065931
0.01264674 -0.059999961 0.0025131342
0.017160609 -0.0580483 0.0015992172
0.022039663 -0.059999958 0.0023771611
0.026662823 -0.059168067 0.0023968355
0.030302871 -0.05475622 0.0017316489
-0.030522404 -0.051051542 0.0025864325
0.031000014 -0.052552752 0.002480974
-0.029966885 -0.04637995 0.0025244523
0.030715669 -0.046101984 0.0022734383
-0.030128354 -0.041177064 0.0018693918
0.031000013 -0.042601895 0.0025798595
-0.031000013 -0.037513275 0.0024891936
0.031000003 -0.037234474 0.0025745993
-0.031000013 -0.032603573 0.0025390964
0.031000011 -0.032378979 0.0023503345
-0.029678997 -0.025076054 0.0018302026
0.030337106 -0.026511865 0.0020030364
-0.031000013 -0.022350959 0.0027753022
0.030164 -0.021019896 0.0022645106
-0.030559609 -0.01473783 0.0015079129
0.030988581 -0.018100999 0.002439602
-0.030340979 -0.01215083 0.0017732842
0.031000003 -0.012631244 0.0025237931
-0.031000013 -0.0073529277 0.0022757195
0.031000009 -0.007555828 0.0022099349
-0.03025409 -0.00061985973 0.0013585372
0.031000013 -0.0026629393 0.0025956063
-0.031000013 0.0024759681 0.0023625409
0.031000013 0.0026102841 0.0021522229
-0.03007034 0.0078256903 0.001884098
0.031000014 0.0074426592 0.0029158853
-0.030999988 0.012629359 0.0024797102
0.030598763 0.012568631 0.0018668394
-0.031000011 0.01765796 0.0024706442
0.030999985 0.017365634 0.0027135385
-0.031000013 0.022813495 0.0025831643
0.030329285 0.023172306 0.001388573
-0.030821264 0.026148366 0.0020024199
0.030999998 0.027581129 0.0027517842
-0.030303339 0.031651374 0.0019707903
0.031000013 0.031054024 0.0026035837
-0.030412665 0.03616868 0.0023776693
0.031000014 0.037865717 0.0021638609
-0.031000005 0.042547226 0.0026104727
0.031000013 0.04221319 0.0023982562
-0.031000013 0.047626708 0.0022851294
0.030335655 0.046619445 0.0013531363
-0.030999986 0.052573316 0.0026124804
0.030153936 0.052734762 0.0018015216
-0.030977037 0.057456177 0.0023339752
-0.027528629 0.059999999 0.0028857028
-0.02225945 0.059999995 0.0023770849
-0.017517274 0.059999995 0.0027889991
-0.012842677 0.060000002 0.0035283619
-0.0077801687 0.059999987 0.0024964092
-0.0025788215 0.059999999 0.0027335398
0.00051160587 0.059037182 0.0024160242
0.0082653854 0.059999984 0.0024906097
0.012454658 0.059999995 0.0030141037
0.017587105 0.059316926 0.00025614709
0.022840172 0.059999984 0.002456486
0.027606165 0.05999998 0.0025735756
0.030944958 0.057975847 0.0026112678
-0.030270563 0.060000002 0.0023840845
-0.027584068 0.057446118 0.0018854614
-0.022465892 0.059999961 0.0025542674
-0.017452078 0.059999961 0.002707473
-0.012307326 0.059999965 0.0025688543
-0.0067247176 0.059999961 0.0017613886
-0.0030849862 0.058775403 0.0020772419
0.0021282427 0.059999965 0.0028686726
0.0079901172 0.059604432 0.0017893553
0.012690309 0.059999965 0.0025648894
0.017209915 0.059999961 0.0023714541
0.022849668 0.059999969 0.0028330821
0.027582277 0.059999969 0.0030534696
0.030521372 0.060000002 0.0026715407
-0.030925091 -0.058055028 0.0073907776
-0.026567094 -0.059999958 0.0073213377
-0.022167156 -0.059999958 0.0073019094
-0.017111681 -0.059999954 0.0076571703
-0.011554054 -0.059573382 0.0069381283
-0.0073467353 -0.059999958 0.0075122342
-0.0027624797 -0.059999961 0.0074000391
0.0018748643 -0.0552788 0.0067369626
0.0074554458 -0.059999961 0.0073470743
0.012842118 -0.059341855 0.0070599704
0.016782925 -0.058680527 0.006907938
0.022153834 -0.059999958 0.0073965732
0.027512334 -0.059999958 0.0077922498
0.030869268 -0.058259927 0.0073069758
-0.030199626 -0.05113956 0.0067817345
0.030999985 -0.052613307 0.0076489276
-0.031000011 -0.047568932 0.0075026401
0.03099999 -0.047385786 0.0072639873
-0.031000009 -0.042503834 0.0075507956
0.030517977 -0.042259306 0.00684598
-0.031000013 -0.036780331 0.0070170546
0.03056062 -0.037439354 0.0068696178
-0.030635739 -0.032797143 0.0072247316
0.030988965 -0.03269615 0.00759672
-0.031000013 -0.027330613 0.0076308763
0.031000003 -0.027356159 0.0075947139
-0.031000005 -0.02264533 0.0074052089
0.029490864 -0.021079406 0.0060999375
-0.031000011 -0.017431622 0.0074575315
0.029983616 -0.017589109 0.0072644665
-0.031000013 -0.012321011 0.0075966567
0.031000013 -0.012379618 0.0074282824
-0.030101456 -0.0074506332 0.0072931098
0.031000014 -0.0077186571 0.0073037134
-0.031000013 -0.0022996278 0.0076181395
0.031000013 -0.0023514507 0.0072997008
-0.031000011 0.0025897385 0.0076422831
0.029404769 0.00023614119 0.0068622176
-0.031000013 0.0071747545 0.0077173286
0.030330325 0.0071407026 0.0071912012
-0.029722814 0.01241845 0.0071228328
0.030272512 0.013179557 0.0066918489
-0.031000003 0.016305149 0.0070793391
0.031000014 0.017004834 0.0073026782
-0.030070387 0.023133637 0.0071573975
0.030338092 0.021536255 0.0071271271
-0.030359432 0.027928745 0.0072110421
0.029589627 0.024332384 0.0075044995
-0.030999999 0.032195088 0.0075340834
0.030549673 0.03085015 0.0071347114
-0.031000013 0.037287362 0.0073114098
0.031000013 0.037645679 0.007385619
-0.030074639 0.042221036 0.0071325353
0.030999996 0.042674273 0.0072142025
-0.031000013 0.047140941 0.0076244008
0.031000013 0.047684871 0.0077071209
-0.030009313 0.051753901 0.0067407466
0.031000011 0.050640643 0.0075743375
-0.030977229 0.057608586 0.0072757769
-0.024147104 0.056622203 0.0077807875
-0.019521354 0.059999995 0.0061162808
-0.016965307 0.05999998 0.0080388384
-0.012648997 0.059999987 0.007667291
-0.0069308546 0.05999998 0.007266331
-0.0027827742 0.05999998 0.0080174161
0.0020833779 0.059999999 0.0077665192
0.0074675162 0.059999987 0.0071780398
0.011339967 0.057974674 0.0057479544
0.015716173 0.055714268 0.0067379898
0.022648992 0.059999987 0.0077692457
0.027156109 0.059999995 0.0078358715
0.030978501 0.057562996 0.0075041451
-0.030437192 0.060000002 0.0074908878
-0.027021814 0.059999969 0.0074032205
-0.023145178 0.059999969 0.0075858054
-0.017079335 0.059973504 0.0066881068
-0.012367054 0.059999965 0.0072415089
-0.0071435804 0.059999965 0.0079077007
-0.0027041116 0.059999965 0.0075515839
0.0023217404 0.059999965 0.0076454771
0.0073918281 0.059999965 0.0073469291
0.012453739 0.059999961 0.0073344666
0.01703883 0.059054561 0.0067066611
0.022401744 0.059999965 0.0073251398
0.02741641 0.059999969 0.0077137346
0.030465391 0.060000002 0.0071417689
-0.030909153 -0.057657015 0.012364863
-0.027705856 -0.059999958 0.012532705
-0.022656744 -0.059999961 0.012313111
-0.017651793 -0.059723154 0.012520471
-0.012218795 -0.059999954 0.012415313
-0.0075172679 -0.059999958 0.012423784
-0.0024823658 -0.059106763 0.011710152
0.0035189921 -0.058691084 0.011953277
0.0071349652 -0.057167307 0.011716656
0.011430035 -0.05770959 0.01104746
0.017468151 -0.059999958 0.012498841
0.022736654 -0.059999958 0.012578971
0.027734701 -0.059999961 0.01226294
0.030430406 -0.057422724 0.012042402
-0.030981494 -0.050526001 0.011494322
0.030197481 -0.051303443 0.012012039
-0.030859567 -0.047498267 0.012647148
0.031000011 -0.047447667 0.012468307
-0.0306817 -0.040538657 0.012035161
0.029892869 -0.042403407 0.012274783
-0.030443255 -0.037536267 0.012769503
0.030152177 -0.034806382 0.012048112
-0.031000009 -0.03295958 0.012465531
0.031000009 -0.032722153 0.012876791
-0.030999994 -0.027521271 0.012437576
0.031000011 -0.027634839 0.012482291
-0.030999985 -0.022544168 0.012693134
0.030544978 -0.021702351 0.012001341
-0.031000011 -0.017291078 0.01210666
0.031000014 -0.017278848 0.012766608
-0.031000007 -0.012429325 0.012440748
0.031000013 -0.01255676 0.012670824
-0.030951424 -0.0070565711 0.011732201
0.030336877 -0.0074852477 0.011426724
-0.031000007 -0.0025215878 0.012174123
0.031000005 -0.0024258567 0.012322821
-0.030224994 0.0033708231 0.012104511
0.031000007 0.0023810808 0.012372368
-0.03079834 0.0083408291 0.011854362
0.031000011 0.0071955803 0.012468765
-0.029690854 0.013498026 0.011344998
0.030858973 0.01296529 0.011982495
-0.031000013 0.017180195 0.012518667
0.030015886 0.01721951 0.011812055
-0.030239588 0.021299083 0.012158419
0.030999996 0.022514397 0.012426282
-0.030999992 0.027575145 0.012698593
0.030999998 0.027671421 0.012505387
-0.03037004 0.033329125 0.011430083
0.030173331 0.032679725 0.01254777
-0.029337665 0.037447803 0.011656203
0.030940469 0.03777647 0.012214194
-0.031000011 0.042741492 0.012567324
0.030016961 0.042328376 0.012015448
-0.030012961 0.045197807 0.011580263
0.031000013 0.047569461 0.012711163
-0.030330831 0.052415535 0.011887267
0.030999998 0.052418552 0.01235054
-0.030173197 0.05472767 0.011346443
-0.026986713 0.059999991 0.012719451
-0.02206783 0.05999998 0.012646842
-0.017312214 0.053999998 0.011246956
-0.012436199 0.059999991 0.012695233
-0.0066598603 0.059999999 0.012304956
-0.0023933707 0.059999973 0.012722244
0.002677358 0.059999995 0.012593052
0.0071664122 0.059999999 0.012706769
0.012639387 0.054782599 0.010829106
0.017461607 0.059999995 0.012424611
0.022267221 0.059999987 0.012639707
0.027196702 0.059999984 0.012209243
0.029007718 0.057622965 0.012634467
-0.03069224 0.060000002 0.012393484
-0.026298329 0.059842028 0.012206583
-0.022652004 0.059999965 0.012542324
-0.018482063 0.058315586 0.011746588
-0.012395727 0.059999961 0.01238784
-0.007921231 0.059999965 0.012438106
-0.0033814795 0.05939756 0.0114799
0.0024814429 0.059999965 0.012440088
0.0074549965 0.059999969 0.012930437
0.012194791 0.059999965 0.012278428
0.017770363 0.057099469 0.011536893
0.022483056 0.059999969 0.012480313
0.027514279 0.059999958 0.01252037
0.030479098 0.060000002 0.012440865
-0.030655123 -0.056396652 0.016965764
-0.027913978 -0.059999954 0.017613212
-0.02246503 -0.059999958 0.017917397
-0.016415596 -0.057905357 0.016818207
-0.012369894 -0.057534307 0.017024998
-0.007628167 -0.059999954 0.01748101
-0.0024069531 -0.059999954 0.0173693
0.0020845481 -0.059510414 0.01668461
0.0071105785 -0.059999961 0.017348887
0.012543464 -0.059999958 0.017370334
0.017386474 -0.059999958 0.017753467
0.022240054 -0.059999958 0.017420467
0.02719173 -0.059999958 0.017900852
0.030625714 -0.056374606 0.016997827
-0.030126765 -0.050832953 0.017151717
0.030999988 -0.052388892 0.01720692
-0.031000013 -0.047450174 0.017534083
0.030999994 -0.047628641 0.017084906
-0.031000007 -0.042646892 0.017447764
0.030488076 -0.04231628 0.017030891
-0.031000013 -0.037197467 0.017432718
0.030061141 -0.036095176 0.016959652
-0.030534651 -0.031768952 0.016801806
0.031000011 -0.031794973 0.017566944
-0.029206105 -0.027609533 0.017222773
0.030496649 -0.027153378 0.016061185
-0.031000005 -0.022561492 0.017673483
0.030038532 -0.022771778 0.017349839
-0.030561902 -0.01591352 0.017333293
0.030999936 -0.016737286 0.017075343
-0.030212454 -0.011720967 0.016471699
0.031000013 -0.012133294 0.017763842
-0.031000009 -0.0074410709 0.017485386
0.031000014 -0.0075418986 0.017410021
-0.027478887 -0.0022906489 0.014269893
0.031000013 -0.0024058798 0.017791454
-0.031000013 0.0022315332 0.017494872
0.031000014 0.00224333 0.017506136
-0.031000013 0.0073938491 0.017375791
0.031000011 0.0074812551 0.017798381
-0.030538199 0.013298083 0.017097289
0.030413087 0.012589389 0.016215725
-0.031000013 0.017287357 0.017654575
0.030989902 0.018238567 0.016475616
-0.030997729 0.022323968 0.017080078
0.030475456 0.022211464 0.017215844
-0.030999992 0.027365053 0.017870558
0.030595113 0.027296605 0.016791249
-0.030613475 0.031315513 0.016652554
0.029943185 0.032860432 0.016914379
-0.028478298 0.036247134 0.015255336
0.031000011 0.03772603 0.017592316
-0.030069025 0.040987551 0.016330199
0.031000014 0.042280436 0.017450435
-0.031000014 0.047572382 0.01732952
0.031000013 0.047557183 0.017254641
-0.031000005 0.052581023 0.017917007
0.030024065 0.051516902 0.017026307
-0.030962098 0.05762317 0.01772183
-0.02691469 0.059999999 0.018118825
-0.022523655 0.05999998 0.01765495
-0.017027725 0.059999976 0.017890278
-0.013264716 0.059999987 0.017223196
-0.0069933026 0.059999999 0.017846888
-0.0013589353 0.059999984 0.017019378
0.00012633282 0.052594017 0.014027053
0.0070621273 0.059999995 0.017445359
0.012545168 0.059999999 0.017304035
0.01770146 0.060000002 0.017436398
0.022342734 0.060000002 0.017159287
0.027892875 0.059999999 0.016959416
0.030148977 0.056734137 0.017674195
-0.030606838 0.060000002 0.016291305
-0.027604613 0.059999969 0.017646838
-0.022515887 0.059999961 0.017491883
-0.01746216 0.059999965 0.017171953
-0.012851556 0.059203994 0.01760716
-0.0069861123 0.059999958 0.017566273
-0.0027225867 0.059999961 0.017760713
0.0022427675 0.057811785 0.016628975
0.0074904845 0.059999961 0.017383887
0.012150315 0.058345344 0.016597632
0.017115265 0.059999965 0.017553696
0.022729997 0.057818141 0.017010458
0.027308198 0.059999965 0.017390972
0.030462792 0.060000002 0.017110929
-0.030950475 -0.057709403 0.022557152
-0.027600573 -0.059999958 0.022826971
-0.022071484 -0.059999954 0.022725437
-0.0172597 -0.059999954 0.022486057
-0.012471913 -0.059999958 0.022651618
-0.0072573624 -0.059999958 0.02222495
-0.0018288752 -0.057593584 0.021130877
0.002421598 -0.058286056 0.022438541
0.0063166246 -0.05810504 0.021113532
0.01289262 -0.059999958 0.022409733
0.01654961 -0.058809802 0.021890815
0.021044524 -0.058000468 0.021823607
0.027631339 -0.059999958 0.02277251
0.030904984 -0.057962153 0.022468198
-0.031000007 -0.052307587 0.022231754
0.030999009 -0.052479941 0.021757282
-0.030674679 -0.045441367 0.021415131
0.030354638 -0.04576429 0.022067102
-0.030999744 -0.042790696 0.022502035
0.031000013 -0.04249879 0.022221802
-0.030479964 -0.037052825 0.021285631
0.030999994 -0.037399117 0.022396222
-0.029995166 -0.030992851 0.021443944
0.030999999 -0.032441705 0.022489058
-0.029891068 -0.026425583 0.02144056
0.030999999 -0.026966168 0.022039713
-0.030873589 -0.0220525 0.021679761
0.03007268 -0.020335896 0.020998865
-0.03012686 -0.016582409 0.02179982
0.031000005 -0.017853061 0.02201115
-0.030114293 -0.012554913 0.022205101
0.029572885 -0.012130737 0.021059871
-0.030602276 -0.0068309577 0.021813432
0.031000003 -0.0073153516 0.022566523
-0.030551203 -0.0018733954 0.021708775
0.030999992 -0.0025639646 0.022606067
-0.031000013 0.0028262688 0.021898758
0.031000007 0.0024862697 0.022613656
-0.031000013 0.0074353875 0.022661272
0.031000013 0.0077387341 0.022680301
-0.031000013 0.012861432 0.022655187
0.031000013 0.012356725 0.021338833
-0.030155238 0.016195113 0.021775184
0.031000013 0.017720664 0.022638017
-0.030003959 0.021784319 0.021736382
0.030999999 0.021852305 0.022226272
-0.031000013 0.027557962 0.022599341
0.031000014 0.027551983 0.022235231
-0.029949164 0.03159434 0.021117121
0.031000011 0.032739151 0.022760632
-0.031000011 0.037430968 0.022301326
0.031000013 0.037440225 0.022272116
-0.031000011 0.042588145 0.022732368
0.029383903 0.040880762 0.021967262
-0.031000013 0.047726467 0.022408569
0.03086682 0.047529165 0.022494033
-0.031000013 0.052125391 0.021421652
0.029408401 0.049364913 0.021326238
-0.029074991 0.053909916 0.020217454
-0.028606288 0.059999999 0.022020584
-0.022993574 0.059999999 0.021961147
-0.017280322 0.05999998 0.022577826
-0.011851026 0.059999991 0.022584569
-0.0077021727 0.059999976 0.022756794
-0.0029469565 0.059999999 0.021978315
0.0022822397 0.059999995 0.022548119
0.0074733258 0.060000002 0.022840727
0.012390858 0.059999999 0.022405973
0.017109713 0.060000002 0.02263831
0.02327992 0.059999999 0.022383897
0.028004568 0.059999999 0.021875534
0.030980553 0.057501871 0.022257775
-0.030375702 0.059999999 0.021960072
-0.02769601 0.057804681 0.021911805
-0.022423824 0.059999961 0.021195516
-0.017623143 0.059999965 0.022434937
-0.011819838 0.059999961 0.021801932
-0.0077490434 0.059999969 0.022213027
-0.0024470035 0.059924774 0.022286413
0.002541837 0.059999965 0.022608142
0.0076745516 0.059999965 0.022331843
0.012637458 0.059999961 0.022798942
0.01745088 0.056138612 0.021664171
0.021191619 0.057903443 0.021899655
0.027765373 0.059999965 0.022495812
0.030618306 0.060000006 0.022699097
-0.030895999 -0.058173195 0.027395934
-0.027025811 -0.058266565 0.027308077
-0.022297034 -0.059999958 0.027479824
-0.017092403 -0.056786921 0.026658453
-0.012658246 -0.059999954 0.027919821
-0.007460061 -0.058285672 0.02693435
-0.0023389317 -0.058285672 0.026319165
0.0025879834 -0.059999954 0.027630841
0.0064257751 -0.055028085 0.025522521
0.011967889 -0.059791561 0.026391439
0.017606536 -0.059999954 0.027417997
0.022577122 -0.057356779 0.026434598
0.027224191 -0.055102006 0.026496526
0.0300861 -0.056464635 0.02688412
-0.030999992 -0.052187271 0.027655577
0.031000009 -0.052566279 0.027599517
-0.031000013 -0.047685482 0.027565073
0.029937612 -0.046576802 0.025863575
-0.031000013 -0.040983915 0.026408516
0.030217651 -0.04080363 0.025183238
-0.029947091 -0.035727717 0.026713435
0.029291544 -0.035915092 0.027233275
-0.030120792 -0.032267172 0.0272617
0.031000013 -0.032198571 0.027235961
-0.031000003 -0.027445946 0.027216107
0.030993506 -0.027137397 0.026961403
-0.030401779 -0.021510808 0.026242502
0.029669054 -0.020890499 0.025891189
-0.029187936 -0.016517134 0.025905434
0.030453669 -0.016186167 0.026760008
-0.030024763 -0.011381827 0.026969612
0.03026301 -0.013212333 0.025989333
-0.030519746 -0.0076289126 0.026104197
0.029510869 -0.0072184722 0.025543986
-0.030037375 -0.004101397 0.025731286
0.029172402 -0.0018568083 0.025822312
-0.030610479 0.002071271 0.026624074
0.029054921 0.0023296084 0.027101425
-0.031000003 0.0076433695 0.027585041
0.030074639 0.0080397939 0.027042296
-0.029410403 0.01062819 0.026073683
0.031000011 0.012560741 0.027314696
-0.030060619 0.017127426 0.026867289
0.030999999 0.017515654 0.027486693
-0.030290825 0.023452967 0.026725404
0.031000009 0.022319885 0.027212458
-0.031000001 0.027504785 0.02731554
0.030151602 0.026735025 0.026570804
-0.031000014 0.032661781 0.027582755
0.030523706 0.030500682 0.027445104
-0.030141344 0.03736297 0.026842982
0.030531038 0.037821971 0.027235439
-0.030999996 0.042410668 0.027729487
0.030228218 0.042614534 0.027519805
-0.029949162 0.04687373 0.026791973
0.029361065 0.046365686 0.026948053
-0.030957766 0.051420599 0.026797131
0.031000013 0.052662037 0.027627759
-0.030572338 0.056142341 0.025728785
-0.02777865 0.059999999 0.028096715
-0.022189733 0.059999999 0.027362654
-0.017131506 0.059999999 0.027397849
-0.012489147 0.059999991 0.026970744
-0.0075116623 0.059999976 0.02723404
-0.0026580705 0.059999995 0.027858073
0.0017348425 0.059999999 0.027566331
0.007066844 0.060000002 0.027183127
0.011955545 0.059999999 0.027778132
0.017432755 0.059999999 0.028041014
0.023295362 0.059999999 0.027676016
0.028334159 0.060000002 0.026753742
0.029966678 0.057007901 0.026442837
-0.030552328 0.060000006 0.027632207
-0.027561296 0.059999958 0.027687315
-0.021240031 0.057197791 0.025340401
-0.016939018 0.05867761 0.026749123
-0.012691701 0.059999969 0.028085003
-0.0073959506 0.059999965 0.027325559
-0.0024087701 0.059999965 0.027485279
0.0018963029 0.059364196 0.027800946
0.0077585899 0.059999965 0.02722772
0.012212746 0.058684956 0.026236553
0.016729062 0.059999961 0.027330225
0.022522936 0.059999958 0.027602661
0.027367095 0.059999958 0.027392637
0.03045005 0.060000006 0.027691586
-0.030759791 -0.057527974 0.03111863
-0.026770784 -0.056604855 0.030852677
-0.021373445 -0.053977758 0.028819881
-0.01786582 -0.057288233 0.031463131
-0.012541859 -0.058428459 0.031661578
-0.0075520445 -0.057455391 0.031149879
-0.0016757767 -0.055375203 0.0304479
0.0020010178 -0.054110084 0.029921904
0.0072566355 -0.058258794 0.031731851
0.01170711 -0.057163328 0.030596128
0.017429776 -0.058349513 0.031745788
0.022463592 -0.058203835 0.031743169
0.027319206 -0.054625887 0.028938804
0.03084242 -0.057471588 0.03138024
-0.030316964 -0.049250953 0.031002233
-0.02778263 -0.052295376 0.031999979
-0.022711571 -0.052670039 0.031999979
-0.017416028 -0.052449185 0.031999975
-0.01287377 -0.051488485 0.030836346
-0.0076651336 -0.052501697 0.031384584
-0.0025889082 -0.052723009 0.031999983
0.0026394627 -0.052465118 0.031999975
0.0077232998 -0.050386608 0.031432252
0.012528162 -0.052459169 0.031999983
0.01690698 -0.05311314 0.031458862
0.022731621 -0.052317057 0.031999975
0.02753037 -0.052602489 0.03199999
0.029170673 -0.049558241 0.029573979
-0.030840388 -0.047897562 0.031412307
-0.027309449 -0.047427937 0.031999994
-0.021721961 -0.046852876 0.030918408
-0.017277891 -0.047263023 0.031999987
-0.012294811 -0.047265474 0.03199999
-0.0070530106 -0.046804126 0.031072447
-0.001947053 -0.047450759 0.031344384
0.002508194 -0.047453232 0.031999975
0.0074765463 -0.047385212 0.031999975
0.012424944 -0.046278086 0.030950796
0.018080587 -0.047620475 0.031999975
0.021650916 -0.047682073 0.031168863
0.027175369 -0.046809744 0.030655501
0.030613188 -0.046727378 0.029491818
-0.030891027 -0.043034326 0.031315651
-0.027308743 -0.04282593 0.031735118
-0.021670833 -0.041665394 0.031858772
-0.017574891 -0.042338759 0.031999979
-0.011584872 -0.042515419 0.030836347
-0.0075681782 -0.040917169 0.031288266
-0.0018698515 -0.042152975 0.031804126
0.0027081994 -0.040546596 0.031016722
0.0076472145 -0.040693849 0.031759057
0.012322187 -0.042367887 0.031999975
0.017120246 -0.04158463 0.031366412
0.022047538 -0.039999768 0.031566095
0.027680187 -0.042936478 0.031999987
0.030851515 -0.043063924 0.031314272
-0.030757019 -0.037390672 0.031427287
-0.025747409 -0.03746378 0.031134183
-0.022472514 -0.037661199 0.031999979
-0.017081091 -0.037817467 0.031015363
-0.011789842 -0.035768449 0.031657528
-0.0072293505 -0.036919255 0.031595781
-0.0027760114 -0.035800837 0.031385712
0.0022620012 -0.037735231 0.031382583
0.0066424855 -0.036938097 0.030558052
0.012512317 -0.037378743 0.030908294
0.017482832 -0.036698461 0.031409338
0.022491941 -0.038024288 0.031878196
0.026737403 -0.035091966 0.029477561
0.030435247 -0.037068374 0.029401805
-0.030853119 -0.032371979 0.031397048
-0.027302885 -0.03223329 0.031999972
-0.021690995 -0.031544313 0.030262677
