# .PCD v0.7 - Point Cloud Data file format
VERSION 0.7
FIELDS x y z
SIZE 4 4 4
TYPE F F F
COUNT 1 1 1
WIDTH 1243
HEIGHT 1
VIEWPOINT 0 0 0 1 0 0 0
POINTS 1243
DATA ascii
0.0049999976 0.072590716 -0.042536072
-0.0050000004 0.078242801 -0.042636149
-0.0049999976 0.077467285 -0.042492453
0.0049999994 0.075821549 -0.04358599
0.0049999976 0.074870341 -0.042611096
-0.0050000004 0.081701338 -0.042443477
-0.0049999985 0.082285725 -0.042443991
0.0049999994 0.082191966 -0.042178258
0.0049999985 0.082290776 -0.042280551
-0.0050000004 0.089115337 -0.041659243
-0.0035917524 0.087743044 -0.042476553
0.0024992921 0.087485597 -0.042353556
0.0050000008 0.086371757 -0.042753935
-0.0050000004 0.090853654 -0.042447757
-0.0044390229 0.091595761 -0.042454969
-0.0044509801 0.097419225 -0.042717837
-0.0045731696 0.10268494 -0.042379756
-0.0044530025 0.1064385 -0.042478442
-0.0050000004 -0.10625771 -0.037036791
-0.0032758601 -0.1069923 -0.037384097
0.0025481237 -0.10554206 -0.037425689
0.0050000004 -0.10631394 -0.037760161
-0.0050000004 -0.10387722 -0.037268303
-0.004999998 -0.10252319 -0.037387546
0.0049603498 -0.10030776 -0.037818518
-0.0050000004 -0.097554579 -0.036941268
-0.0049999976 -0.097527273 -0.037794095
0.0048583099 -0.095450424 -0.037775334
-0.0050000004 -0.093294106 -0.038311861
-0.0049999985 -0.09254659 -0.037830506
0.004999998 -0.092521042 -0.037748806
-0.0050000004 -0.086511284 -0.03763568
-0.0049999985 -0.087664887 -0.037294377
0.004999998 -0.087677017 -0.037434999
-0.0050000004 -0.081831492 -0.038077824
-0.0048530125 -0.082124986 -0.037575945
0.0049999985 -0.08249449 -0.037491299
-0.0050000004 -0.058646128 -0.040681921
-0.0048076906 -0.07527139 -0.03750471
0.004999999 -0.07774844 -0.037270397
-0.0050000004 -0.0720862 -0.039151963
-0.004999998 -0.072766513 -0.037285876
0.004999998 -0.072467938 -0.037647065
-0.0050000004 -0.067626119 -0.039305374
-0.004999998 -0.067815058 -0.037754524
0.004999998 -0.06766846 -0.037402224
-0.004999998 -0.062926292 -0.037467767
0.0049999976 -0.062536784 -0.036977794
-0.0050000004 -0.057186149 -0.039105695
-0.0049999985 -0.057423189 -0.037271075
0.0049999985 -0.057248689 -0.037288267
-0.0050000004 -0.053200524 -0.037383404
-0.0049649295 -0.051893838 -0.03771773
0.0049999976 -0.052191388 -0.037710559
-0.0050000004 -0.049469456 -0.035075609
-0.0047826073 -0.047856238 -0.037443645
0.004999998 -0.047676556 -0.037306838
-0.0050000004 -0.042248845 -0.036701396
-0.004999998 -0.042620849 -0.037447874
0.0049999976 -0.042507019 -0.03758477
-0.004999998 -0.037659992 -0.037728928
0.004999998 -0.037342746 -0.037331555
-0.0050000004 -0.031695008 -0.036905341
-0.0049999976 -0.032237817 -0.037777092
0.0049999976 -0.032754384 -0.037288036
-0.004999998 -0.026131783 -0.03752391
0.0049999985 -0.027297664 -0.037584074
-0.004999998 -0.022564236 -0.037567906
0.0049999985 -0.022621468 -0.037831426
-0.0049999985 -0.017366564 -0.037415951
0.0049999985 -0.01764188 -0.037823126
-0.0050000004 -0.013344388 -0.037010208
-0.004999998 -0.012411021 -0.0376096
0.004999998 -0.012200757 -0.037297238
-0.004999998 -0.0075905481 -0.037485886
0.004803061 -0.005179326 -0.037240982
-0.0047777765 -0.0031033622 -0.037478052
0.0049999976 -0.0023452686 -0.037409272
-0.004999998 0.0026754972 -0.037556555
0.0049999985 0.0025822781 -0.037541032
-0.004999999 0.0076958467 -0.03732764
0.0049999976 0.0074612671 -0.037445057
-0.0049999976 0.012815084 -0.037354667
0.004999998 0.012609039 -0.037231635
-0.0049999976 0.017381793 -0.037524082
0.0049993019 0.015342383 -0.037639216
-0.004999998 0.022370096 -0.037900455
0.004999998 0.022583684 -0.037199114
-0.0049999985 0.027760474 -0.037693948
0.004999998 0.027296241 -0.037867043
-0.0049999985 0.032549061 -0.037650637
0.0047999979 0.03373811 -0.037696887
-0.0049999976 0.037393149 -0.037540909
0.004999998 0.037387155 -0.037382822
-0.004999999 0.042682607 -0.037142877
0.004999998 0.04246809 -0.037064124
-0.0050000004 0.047164492 -0.038131326
-0.0049999976 0.046948668 -0.037755303
0.0049999994 0.049101271 -0.039033066
0.0049999999 0.047522325 -0.038180958
-0.0050000004 0.053615414 -0.037199192
-0.0048214267 0.050081842 -0.037422825
0.0049999994 0.052551728 -0.038564377
0.004999998 0.052589502 -0.037462905
-0.0050000004 0.057407487 -0.038252808
-0.0049999976 0.057632107 -0.037769318
0.0049999994 0.058070298 -0.037627678
0.0049999976 0.057870544 -0.037381839
-0.0050000004 0.063121669 -0.036017556
-0.004999998 0.062576652 -0.037437331
0.0049999994 0.061488964 -0.036945097
0.0049999976 0.062187478 -0.037479509
-0.0050000004 0.066827133 -0.038966879
-0.0049999976 0.0674707 -0.037625875
0.0049999994 0.066948622 -0.038212262
0.004999998 0.06738513 -0.037842058
-0.0050000004 0.072114617 -0.037965957
-0.0049999985 0.07262975 -0.037388403
0.0049999994 0.07438866 -0.03672421
0.0049999976 0.072606675 -0.03743751
-0.0050000004 0.076950684 -0.037713367
-0.0049999985 0.077564061 -0.037581291
0.0049999994 0.078232169 -0.038543664
0.004999998 0.077323206 -0.037715789
-0.0050000004 0.082526706 -0.037510574
-0.004999998 0.082663208 -0.03749812
0.0049999999 0.08336316 -0.037150469
0.004999998 0.082243845 -0.037706118
-0.0039037825 0.087920308 -0.037342358
0.0028053555 0.087496109 -0.0374608
0.0050000008 0.086213544 -0.037764989
-0.0050000004 0.091397591 -0.038498938
-0.00440594 0.091022156 -0.037652303
-0.0045353533 0.096530624 -0.037561528
-0.0044862381 0.1024104 -0.037680034
-0.0043158131 0.1040829 -0.037724189
-0.0033293257 -0.10701823 -0.032618649
0.0025832562 -0.10750005 -0.032619592
0.0049999999 -0.10642453 -0.032346293
-0.0050000004 -0.10178457 -0.030797958
-0.0049999985 -0.10216802 -0.032427818
0.004999998 -0.10263878 -0.032641862
-0.0050000004 -0.097005747 -0.031624191
-0.0049999976 -0.097234793 -0.032966424
0.0048383484 -0.095997207 -0.032790545
-0.0050000004 -0.092284068 -0.033398893
-0.0049999976 -0.092188559 -0.032335915
0.004999998 -0.092491403 -0.032369547
-0.0050000004 -0.087457836 -0.032931101
-0.004999998 -0.087489069 -0.03256499
0.0049999976 -0.087293766 -0.032820549
-0.0049999976 -0.082439899 -0.032703284
0.0049999985 -0.082451783 -0.032704066
-0.0050000004 -0.076828569 -0.033243358
-0.004999998 -0.077496864 -0.032502946
0.0049999976 -0.07476382 -0.032593578
-0.0050000004 -0.072003961 -0.03336782
-0.004999998 -0.072756886 -0.032174058
0.00495758 -0.069991402 -0.032951344
-0.0050000004 -0.066023558 -0.032947585
-0.004999999 -0.067292444 -0.032394942
0.0049999985 -0.067555219 -0.032810904
-0.0050000004 -0.063547201 -0.033663243
-0.004999998 -0.062592871 -0.032329451
0.004999998 -0.062163591 -0.032240737
-0.0050000004 -0.056046154 -0.033510104
-0.004999998 -0.057437748 -0.032641169
0.0049999976 -0.057476699 -0.032730956
-0.0047435886 -0.049450144 -0.033019107
0.004999998 -0.052462332 -0.032579191
-0.004999998 -0.04750827 -0.032833301
0.004999998 -0.047754519 -0.032472443
-0.004649133 -0.039286904 -0.032598522
0.004999998 -0.042461101 -0.032719918
-0.0050000004 -0.038869746 -0.034631602
-0.004999998 -0.037322257 -0.032653738
0.004999998 -0.03720969 -0.03240731
-0.0049999976 -0.032454938 -0.032440744
0.004999998 -0.032358252 -0.032491785
-0.0049999976 -0.027481036 -0.032429084
0.0049999976 -0.028537858 -0.032514948
-0.004999998 -0.022451257 -0.032584473
0.004999998 -0.02251713 -0.033050727
-0.0049999976 -0.017201068 -0.032372657
0.0049999985 -0.01767955 -0.032141313
-0.004999998 -0.012417188 -0.03300029
0.0049967989 -0.013851847 -0.032608245
-0.004999998 -0.0074896212 -0.032107931
0.0049999976 -0.0078924401 -0.032621916
-0.0049999976 -0.0022292014 -0.032638654
0.004999998 -0.0021906705 -0.032746758
-0.0049999976 0.0024279344 -0.032441434
0.0049496889 0.0027950318 -0.032551609
-0.004999998 0.0071192472 -0.032490022
0.004999998 0.0075465869 -0.032692801
-0.0049999976 0.012477798 -0.032578662
0.0049999976 0.012794852 -0.032526147
-0.0049999985 0.017721869 -0.032788984
0.004999998 0.017323261 -0.032408297
-0.004999998 0.022283215 -0.032145593
0.004999998 0.022831174 -0.032548234
-0.0049999985 0.027623121 -0.032502107
0.004999998 0.02718428 -0.032283425
-0.004999998 0.032210007 -0.032598961
0.0049999976 0.032530632 -0.032470603
-0.004999998 0.037023004 -0.032345992
0.0049999985 0.03758556 -0.032793622
-0.0048275841 0.041547187 -0.033207323
0.0049999976 0.042633612 -0.032313149
-0.0050000004 0.046115313 -0.031707834
-0.0048305066 0.045415968 -0.032536659
0.0049999999 0.047136605 -0.03292384
0.0049999985 0.047172911 -0.032731734
-0.0050000004 0.054433689 -0.032692313
-0.0049999985 0.052238334 -0.032551561
0.0049999994 0.051242348 -0.032767549
0.0049999976 0.052555569 -0.032608449
-0.0050000004 0.059303328 -0.031623468
-0.004999998 0.057431538 -0.032687917
0.0049999994 0.057743549 -0.031696357
0.004999998 0.057726428 -0.03269168
-0.0050000004 0.061527565 -0.033688679
-0.004999998 0.062335044 -0.032109991
0.0049999994 0.062688887 -0.032534935
0.004999998 0.062201947 -0.032755081
-0.0050000004 0.068191119 -0.033232242
-0.0049999985 0.067457676 -0.032675032
0.0049999994 0.067976438 -0.033116281
0.004999998 0.067473024 -0.032624505
-0.0050000004 0.071259677 -0.03284578
-0.0049999985 0.069911227 -0.03289289
0.0049999999 0.072943181 -0.032909375
0.0049999985 0.07200098 -0.032435335
-0.0049999976 0.077260219 -0.032827407
0.0049999994 0.07860183 -0.030759089
0.0049999976 0.077478297 -0.032781243
-0.0050000004 0.082530737 -0.03317026
-0.0049999994 0.082611948 -0.032332364
0.0049999999 0.084121421 -0.032234021
0.004999998 0.082602672 -0.032445837
-0.0050000004 0.085584633 -0.032423362
-0.0035513223 0.087745488 -0.032625489
0.0025944409 0.087450385 -0.032543793
0.0050000004 0.084490463 -0.033064179
-0.0045576915 0.092633009 -0.032435648
-0.0043877545 0.097279966 -0.032498803
-0.0044699996 0.10240442 -0.032292116
-0.0042567449 0.10268331 -0.032830421
-0.0034316201 -0.10709003 -0.027570065
0.0026963805 -0.10750004 -0.027458711
0.0049999994 -0.10651337 -0.027686084
-0.0050000004 -0.10231108 -0.028121687
-0.0049999976 -0.10229582 -0.027365701
0.0049972734 -0.10271759 -0.027533043
-0.0050000004 -0.097412765 -0.029142026
-0.0049999976 -0.097348087 -0.027380288
0.0049999976 -0.097614348 -0.027539011
-0.0050000004 -0.094269298 -0.028939478
-0.0049725147 -0.088855051 -0.028259078
0.0049999976 -0.0923981 -0.027452955
-0.0049999985 -0.087669976 -0.027665509
0.004999998 -0.085521474 -0.027475392
-0.004999998 -0.08260747 -0.027492924
0.004999998 -0.082556508 -0.027520483
-0.0049999976 -0.077580817 -0.027559111
0.004999998 -0.077776343 -0.028002866
-0.0048517128 -0.069736093 -0.028474802
0.0048381281 -0.070049919 -0.028056823
-0.004999998 -0.067544192 -0.027426532
0.004999998 -0.068064392 -0.027503792
-0.004999998 -0.062215466 -0.02734302
0.0049999985 -0.062326238 -0.027557574
-0.0049999976 -0.057309624 -0.02780652
0.004999998 -0.057674579 -0.027803054
-0.004999998 -0.05293167 -0.027562276
0.0049999985 -0.052699711 -0.027398197
-0.0049999985 -0.047195438 -0.027007755
0.004999998 -0.047788393 -0.027403384
-0.0049999976 -0.042156637 -0.02770091
0.004999998 -0.042230777 -0.027620465
-0.004999998 -0.037389506 -0.027683735
0.0049999985 -0.037447356 -0.027672591
-0.0049999985 -0.032279454 -0.027602248
0.0049999985 -0.03240598 -0.027494106
-0.0049999976 -0.0277739 -0.027312124
0.0049999985 -0.027541872 -0.027421542
-0.0048214267 -0.021982493 -0.027813923
0.004999998 -0.022424871 -0.027718956
-0.004999998 -0.017424308 -0.027410045
0.004999998 -0.017906046 -0.02738147
-0.0049999976 -0.012325171 -0.027210593
0.0047826073 -0.012882709 -0.027998637
-0.004999998 -0.0075460938 -0.027531831
0.0049999985 -0.0074034133 -0.027715964
-0.004999998 -0.0026147095 -0.02751139
0.0046874979 -0.0029622666 -0.027827246
-0.004999998 0.0018976846 -0.028146958
0.0049999976 0.0027410015 -0.027457647
-0.004999998 0.0074512316 -0.027351435
0.004999998 0.0077487696 -0.027619693
-0.0049999976 0.012627896 -0.027631463
0.0049999985 0.012438772 -0.027594058
-0.0049999976 0.017697748 -0.027729187
0.004999998 0.017442025 -0.027817965
-0.004999998 0.022649879 -0.027362291
0.0049991305 0.022284647 -0.027682111
-0.004999998 0.027442671 -0.027179832
0.004999998 0.027534472 -0.027539212
-0.004999998 0.032663345 -0.027441286
0.0049999985 0.032260306 -0.027220711
-0.0049999985 0.037591159 -0.02771488
0.0049999994 0.039668091 -0.029150328
0.004999998 0.037617054 -0.027453214
-0.004999999 0.042044189 -0.027538745
0.004999998 0.04231368 -0.027224297
-0.0050000004 0.048367593 -0.029114202
-0.0048214267 0.04690459 -0.027293295
0.0049960595 0.046395421 -0.027891248
-0.0050000008 0.052616458 -0.028015388
-0.0048275841 0.050074782 -0.027614987
0.0049999994 0.05359637 -0.028722167
0.004999998 0.052367471 -0.027384434
-0.0050000004 0.057572961 -0.028989688
-0.004999998 0.057663783 -0.027863711
0.0049999994 0.058546759 -0.027654301
0.0049999985 0.057413451 -0.027969051
-0.0050000004 0.063506231 -0.027286679
-0.004999998 0.062383167 -0.027721014
0.0049999994 0.062703595 -0.029973039
0.004999998 0.062695749 -0.027658371
-0.0050000004 0.066803575 -0.028170213
-0.0049999976 0.066002086 -0.0273077
0.0048245597 0.064990014 -0.027886216
-0.0050000004 0.07294362 -0.028052729
-0.0049999985 0.072452322 -0.027517242
0.004999998 0.072619773 -0.027405985
-0.0049999985 0.077474117 -0.027560681
0.0049999994 0.077073269 -0.028456276
0.004772726 0.077761628 -0.027445545
-0.0050000004 0.082308918 -0.028945476
-0.004999998 0.082312323 -0.027413685
0.0049999994 0.082245693 -0.027322188
0.0049999976 0.082179539 -0.027607564
-0.0050000004 0.085055172 -0.02739384
-0.0036996373 0.086916722 -0.027714862
0.0023310822 0.087097779 -0.02791404
0.0049771173 0.085581638 -0.028443288
-0.004610525 0.092594475 -0.02766416
-0.0044598663 0.096155502 -0.027701985
-0.0045689652 0.10248164 -0.027340131
-0.0044233496 0.10591029 -0.027662598
-0.0034346026 -0.10708395 -0.02253614
0.0028995015 -0.10750004 -0.021997446
0.0050000004 -0.10636689 -0.022003472
-0.0049999976 -0.10244843 -0.02271067
0.0049999976 -0.10258941 -0.022536799
-0.0049999976 -0.097215839 -0.022461433
0.004999998 -0.097423382 -0.022540061
-0.0048150378 -0.086270012 -0.023180338
0.0049999985 -0.092594922 -0.022178655
-0.0049999976 -0.087709926 -0.022611236
0.0049999985 -0.08728113 -0.02292365
-0.0049750828 -0.081546567 -0.022773458
0.0049999976 -0.082322702 -0.022578165
-0.0048181796 -0.075984739 -0.022745401
0.0049999985 -0.077603467 -0.022628522
-0.004999998 -0.072242737 -0.022344947
0.004999998 -0.072414182 -0.022454444
-0.004999998 -0.067906916 -0.022429427
0.004999998 -0.06713143 -0.022328727
-0.004999998 -0.062494375 -0.022254473
0.0049999976 -0.06239447 -0.022333939
-0.0049999985 -0.057556875 -0.022460964
0.0047916649 -0.051796973 -0.023296012
-0.0049999976 -0.052508749 -0.022699032
0.0049999976 -0.052847948 -0.022165885
-0.004999998 -0.047428332 -0.02293033
0.004999998 -0.04770061 -0.022627667
-0.004999998 -0.042631052 -0.022488993
0.0049999976 -0.042731524 -0.022642529
-0.0049999976 -0.037557878 -0.022568271
0.004999998 -0.037826955 -0.022480244
-0.0049999976 -0.032640245 -0.022471124
0.0049999985 -0.032292821 -0.022217751
-0.0047674403 -0.024850238 -0.022674559
0.0049999976 -0.027388012 -0.022338415
-0.0048571406 -0.021499828 -0.02267467
0.0049999985 -0.023069309 -0.022581505
-0.004994588 -0.016193876 -0.022877993
0.0049999976 -0.017618615 -0.022516731
-0.004999998 -0.01257938 -0.022561971
0.004999998 -0.012284361 -0.022383602
-0.0049999976 -0.0078629116 -0.022417711
0.0049999976 -0.0077463994 -0.022571646
-0.0049999985 -0.00195659 -0.022026677
0.0047999984 -0.0040289504 -0.02273147
-0.0049999976 0.0022976589 -0.022343598
0.0048181796 0.0030448912 -0.022742419
-0.004999998 0.0084497854 -0.022927893
0.004999998 0.0075358958 -0.022164458
-0.0049999985 0.01239377 -0.022592945
0.0049999985 0.012147279 -0.022641202
-0.004999998 0.017201021 -0.022796357
0.0048340349 0.018611029 -0.022317106
-0.0049999985 0.021011822 -0.022997849
0.004999998 0.022614211 -0.022492377
-0.004999998 0.027031546 -0.022373196
0.0049999994 0.027766567 -0.020713061
0.004999998 0.027200412 -0.022291899
-0.0049999976 0.031995624 -0.02211762
0.004999998 0.032367993 -0.022695927
-0.0049999985 0.03742012 -0.0224244
0.0049999985 0.037105761 -0.02247148
-0.0049999976 0.040245663 -0.022758568
0.004999998 0.042299446 -0.022506708
-0.0049999976 0.047597434 -0.022465905
0.0049999976 0.047561299 -0.022439271
-0.0049999976 0.052837308 -0.022596242
0.0047959164 0.0507905 -0.023220059
-0.0049999976 0.057312321 -0.022304105
0.004999998 0.057383712 -0.022701737
-0.0049999985 0.06241871 -0.022694524
0.004999998 0.062238477 -0.022157867
-0.004999998 0.067257114 -0.022463135
0.0049999976 0.067616098 -0.022771757
-0.0049999985 0.072768874 -0.022542734
0.0049936203 0.070649736 -0.022291923
-0.0049999985 0.077632979 -0.022381827
0.0049999976 0.077169187 -0.022366695
-0.0049999985 0.08269877 -0.022386374
0.0049999985 0.082780562 -0.022461966
-0.0036666887 0.087747656 -0.02254425
0.0024934497 0.087488636 -0.022487041
0.0049999999 0.086185239 -0.022431016
-0.0046236552 0.091979116 -0.022500902
-0.0044999998 0.097610049 -0.02265916
-0.0044531072 0.10078275 -0.022848498
-0.0044832993 0.10383138 -0.022705469
-0.0030203538 -0.10716483 -0.017644795
0.0023744947 -0.10717437 -0.018161064
0.0050000004 -0.10636774 -0.017608913
-0.004999998 -0.1023935 -0.017443204
0.0049999985 -0.10256861 -0.017529329
-0.0049999976 -0.09541817 -0.017570963
0.004999998 -0.097389162 -0.017323181
-0.0049999976 -0.092402555 -0.017554684
0.0048113191 -0.090473123 -0.017716398
-0.004999998 -0.087320946 -0.017814301
0.0049580182 -0.084464706 -0.017812237
-0.004999998 -0.08260309 -0.017614413
0.0049999976 -0.082375221 -0.017657068
-0.004999998 -0.07731352 -0.017611431
0.0049999976 -0.077290326 -0.017369028
-0.004999998 -0.07256218 -0.017166499
0.0048148129 -0.070065811 -0.017639358
-0.0049999976 -0.067527644 -0.01738126
0.0049999985 -0.067173839 -0.017468734
-0.0049999985 -0.062338363 -0.017671227
0.004999998 -0.062298015 -0.017538354
-0.0049999976 -0.057234664 -0.017598653
0.0049536647 -0.056198884 -0.018622193
-0.0049999976 -0.052600201 -0.017634848
0.0049999976 -0.053425625 -0.017825292
-0.0048642159 -0.046676885 -0.018000076
0.004999998 -0.047878787 -0.017838636
-0.0049999976 -0.042544145 -0.017213892
0.0048039197 -0.040811822 -0.01776184
-0.004999998 -0.03713534 -0.017286284
0.004999998 -0.037464458 -0.017533172
-0.0048148129 -0.031083938 -0.017782308
0.004999998 -0.032553792 -0.017665671
-0.0049999976 -0.028005384 -0.017528053
0.004999998 -0.027658228 -0.017742218
-0.004999998 -0.022848386 -0.01747998
0.004999998 -0.021999534 -0.017736694
-0.0049999985 -0.016971277 -0.017489573
0.0049999976 -0.017613851 -0.017427016
-0.004999998 -0.012584355 -0.017704651
0.004999999 -0.012362236 -0.018074788
-0.0048333313 -0.0077018184 -0.018179448
0.004825417 -0.0056672595 -0.017948635
-0.0047157598 -0.0037445037 -0.017849812
0.004999998 -0.0024055664 -0.017738642
-0.0049999976 0.0033461428 -0.018237134
0.0047777765 0.0037343251 -0.017717617
-0.0048214267 0.0054616402 -0.017278342
0.0048275841 0.0079586394 -0.017578185
-0.004999998 0.01403234 -0.018122278
0.004999998 0.012347715 -0.017360739
-0.0049999976 0.017349601 -0.017229887
0.0049999976 0.017713994 -0.01718043
-0.004999998 0.022480417 -0.017560031
0.0049999994 0.021076888 -0.017630935
0.0049999976 0.022524679 -0.017421713
-0.0050000004 0.028987836 -0.016246244
-0.0049999976 0.027013224 -0.01743762
0.0049999976 0.028249264 -0.017729165
-0.0049999976 0.030631764 -0.01765801
0.0049999985 0.032112543 -0.017893054
-0.004999998 0.037670512 -0.01732053
0.0048437477 0.037473936 -0.017797783
-0.004999998 0.04266436 -0.01764283
0.004999999 0.040034384 -0.018110497
-0.004999998 0.047295369 -0.017561359
0.004999998 0.047232304 -0.017703822
-0.0049999985 0.052508987 -0.017552217
0.004999998 0.052511968 -0.017575337
-0.0049999985 0.057042025 -0.01753396
0.0047916654 0.057891272 -0.017732311
-0.0049895132 0.06324546 -0.018035276
0.0046459334 0.063478045 -0.018055342
-0.004999998 0.065331511 -0.017678916
0.004999998 0.067678712 -0.017498547
-0.004999998 0.072573431 -0.017888078
0.0048246561 0.073010325 -0.018339396
-0.0049961666 0.076320738 -0.01775031
0.0049999976 0.07726115 -0.017141659
-0.0048485552 0.081848718 -0.017816443
0.0049999985 0.082372829 -0.017525068
-0.004048672 0.085786723 -0.018070681
0.0026202742 0.084308542 -0.01815415
0.0050000004 0.086299568 -0.017774293
-0.0044711535 0.092040196 -0.017849691
-0.0044774241 0.097273201 -0.017726757
-0.004461539 0.10247925 -0.017330289
-0.0043867049 0.10644098 -0.017442875
-0.0033403179 -0.10675636 -0.012622699
0.0024016793 -0.10750003 -0.012673538
0.0050000008 -0.10625017 -0.012525219
-0.0049999985 -0.10256752 -0.012491118
0.004999998 -0.10248187 -0.012514547
-0.0049999985 -0.097803339 -0.01192658
0.0049999976 -0.097348124 -0.012549307
-0.0049999985 -0.09251935 -0.012526674
0.0049999976 -0.092268378 -0.012534422
-0.0049999976 -0.087412991 -0.012813814
0.0048491103 -0.087226853 -0.012593223
-0.0049999976 -0.082634188 -0.012595046
0.0049999976 -0.08231245 -0.01222697
-0.004999998 -0.077092469 -0.012319336
0.0046523195 -0.072874092 -0.013730606
-0.0049999976 -0.072438717 -0.012230234
0.004999998 -0.072333179 -0.012682253
-0.0048081824 -0.066746585 -0.012842732
0.0046615289 -0.068961501 -0.013766241
-0.004999998 -0.062768884 -0.01261532
0.0049999985 -0.062708683 -0.012338061
-0.004999998 -0.05737786 -0.012349016
0.0049999985 -0.05704277 -0.012467714
-0.0049999985 -0.052677587 -0.012682239
0.0048076906 -0.050157662 -0.013004342
-0.0049999985 -0.047323234 -0.012328681
0.004999998 -0.047252651 -0.012414415
-0.0048360634 -0.04184759 -0.012979284
0.004999998 -0.042436272 -0.012517601
-0.0048550703 -0.037897311 -0.012855889
0.0048214267 -0.038180307 -0.012468239
-0.0048039197 -0.030055171 -0.013174807
0.0049999976 -0.032438327 -0.012645259
-0.004999998 -0.027701158 -0.01245488
0.0049999985 -0.027866337 -0.012502046
-0.0046435846 -0.022500699 -0.013424827
0.0049999985 -0.022588598 -0.012376017
-0.0049999976 -0.017494433 -0.012784622
0.004999998 -0.017532974 -0.01261334
-0.004999998 -0.012689332 -0.012322847
0.0049999976 -0.012550006 -0.012622887
-0.0047959164 -0.0077191517 -0.013088004
0.0048415875 -0.0063926261 -0.012656416
-0.0049997801 -0.0010751663 -0.012854612
0.0049999976 -0.0023971323 -0.012485576
-0.004999998 0.0029996347 -0.012761431
0.0048148129 0.0020726426 -0.012607554
-0.0049971715 0.0069681932 -0.013225545
0.0049999976 0.0076322937 -0.012470038
-0.0048181796 0.013648077 -0.012922434
0.0049999994 0.011292979 -0.013295159
0.0048354007 0.013496111 -0.013362893
-0.004999999 0.017582878 -0.012281537
0.004999998 0.017101401 -0.012491854
-0.004999998 0.022634543 -0.012744278
0.0048145722 0.022678804 -0.013033904
-0.0048336452 0.024337629 -0.013181133
0.004833533 0.026991835 -0.012638736
-0.004999998 0.032311119 -0.01271494
0.0046226401 0.031091226 -0.012902699
-0.0049999985 0.037478343 -0.012315384
0.0049999976 0.03756297 -0.012925663
-0.004999998 0.042506389 -0.012559597
0.0049999976 0.042337593 -0.012576301
-0.0049999976 0.047638796 -0.012712291
0.0049999976 0.047613706 -0.012430168
-0.004999998 0.050737187 -0.01305446
0.0047959164 0.050227515 -0.013207011
-0.004999998 0.057246469 -0.012481523
0.004999998 0.057518721 -0.012615686
-0.0049999985 0.062299509 -0.012512678
0.0049999976 0.062449962 -0.01252296
-0.0049966956 0.062408391 -0.012824737
0.004999998 0.067081265 -0.012449965
-0.0048005893 0.068719722 -0.013204579
0.0049999985 0.072263606 -0.01258481
-0.0048524351 0.073600568 -0.013161536
0.004820602 0.073665425 -0.012532551
-0.004999998 0.079597279 -0.012345566
0.004999998 0.08227589 -0.012291072
-0.003629314 0.087578513 -0.01248327
0.0024451532 0.087500036 -0.012445408
0.0050000008 0.086103201 -0.012123319
-0.0045573763 0.092588305 -0.012395449
-0.0045279996 0.09744443 -0.012307636
-0.0044494374 0.10065726 -0.012325749
-0.0044541126 0.10639704 -0.012806447
-0.003297487 -0.10703797 -0.0073533049
0.0024870236 -0.10750005 -0.0072975461
0.004999999 -0.10612685 -0.0076779295
-0.004999998 -0.10268772 -0.0076716365
0.0047999979 -0.099424824 -0.0085099842
-0.0049999985 -0.097599305 -0.0077871191
0.004999998 -0.097396895 -0.0073048817
-0.0049999976 -0.09235394 -0.0074800989
0.004999998 -0.092650011 -0.0075514428
-0.0049999976 -0.087460093 -0.0077907778
0.0049999985 -0.087221131 -0.0073351846
-0.004999998 -0.082658075 -0.007393213
0.0043337899 -0.08020442 -0.0093099214
-0.0049999976 -0.077103458 -0.0075836009
0.0049999985 -0.077558756 -0.0077571371
-0.0049817273 -0.066670366 -0.0081628235
0.004999998 -0.072598875 -0.0073639546
-0.004999998 -0.067553565 -0.0097156595
0.004999998 -0.066931039 -0.0080920663
-0.0049999985 -0.062955618 -0.0073811458
0.0049999976 -0.061751783 -0.0078521138
-0.0047959164 -0.05471452 -0.0081064729
0.0049999985 -0.057601374 -0.0077719511
-0.0047158208 -0.049631812 -0.008622379
0.0049999985 -0.052490268 -0.0074419612
-0.0048275841 -0.048329599 -0.0083518047
0.004761904 -0.045018587 -0.0083647091
-0.0049999976 -0.041781005 -0.0074969959
0.004999998 -0.042324353 -0.007141029
-0.0048571406 -0.036040317 -0.0076748873
0.004999998 -0.037797134 -0.0077251233
-0.0047916649 -0.031864397 -0.0080482922
0.0049999985 -0.032722436 -0.0078806812
-0.0049686315 -0.028238375 -0.0078381142
0.004999998 -0.027266353 -0.0070412774
-0.0048037721 -0.024107466 -0.0076803225
0.0049999976 -0.022651477 -0.007281411
-0.0048437477 -0.018058386 -0.0081248339
0.004999998 -0.01821788 -0.0084096445
-0.0049999976 -0.012752902 -0.0072637806
0.004999998 -0.012125728 -0.0075794039
-0.0049999971 -0.0074743065 -0.0075388812
0.0046695117 -0.01037585 -0.008702334
-0.0049999976 -0.0024820277 -0.0074061067
0.0049999994 -0.00068482012 -0.0067416783
0.004999998 -0.0023478009 -0.0073130121
-0.0049999976 0.002981591 -0.0070069488
0.0049964101 0.0040515666 -0.0077598384
-0.004999998 0.0076144082 -0.0072389618
0.004999998 0.0075484365 -0.0074874898
-0.004999998 0.012034607 -0.007559455
0.0049999976 0.011801814 -0.0080263512
-0.0049999976 0.017685113 -0.0073809489
0.0048251473 0.016710881 -0.0074007264
-0.0048520067 0.022756629 -0.0085278153
0.0049999976 0.022694675 -0.0075653195
-0.0049999976 0.027266486 -0.0071717273
0.00462658 0.023315812 -0.0080560762
-0.0049999976 0.030529063 -0.008209358
0.0048235841 0.031262137 -0.0090238824
-0.004999998 0.03782545 -0.0073796888
0.004999998 0.037282154 -0.0076416298
-0.004999998 0.041945554 -0.0072822291
0.004999998 0.041020382 -0.0076497719
-0.0049999976 0.047498159 -0.0074981432
0.004999998 0.047357563 -0.0070965695
-0.004999998 0.052584328 -0.0073920442
0.0048305066 0.0524843 -0.0073491097
-0.0049999976 0.055232432 -0.0079936609
0.0048076906 0.055560481 -0.0078256931
-0.004999998 0.062640712 -0.0074699479
0.0049999976 0.062832609 -0.0076960446
-0.0049999976 0.06738653 -0.0071937628
0.0047674403 0.065346017 -0.0084303217
-0.0049999985 0.072158158 -0.0072315941
0.0049999994 0.072251409 -0.0083370637
0.0049999976 0.07196898 -0.0075753317
-0.004999998 0.077436283 -0.0075434144
0.0049999994 0.075716257 -0.0094811879
0.0049999985 0.077761509 -0.0073636393
-0.0049999985 0.082144938 -0.0079987366
0.0049999994 0.082682267 -0.0082953982
0.0049999985 0.082425572 -0.0081022931
-0.0038945426 0.086976267 -0.0075115124
0.0024246927 0.087456919 -0.0072773704
0.0050000008 0.086147442 -0.0073326952
-0.0044128443 0.091659851 -0.0078924187
-0.0045526312 0.09751974 -0.0075156428
-0.0042336443 0.10148486 -0.0079380944
-0.0044760448 0.10638136 -0.0077211955
-0.0031129892 -0.10563141 -0.0029168203
0.0024392572 -0.10750005 -0.0026960778
0.0050000004 -0.10624225 -0.0024620907
-0.0049999985 -0.1025783 -0.002611029
0.004999998 -0.10258094 -0.0024500748
-0.004772726 -0.097529173 -0.0027163571
0.004999998 -0.097640455 -0.0026457708
-0.004999998 -0.092629515 -0.0021336793
0.0049999976 -0.092387274 -0.0026297744
-0.004999998 -0.087580405 -0.0026481505
0.004999998 -0.087576099 -0.002745748
-0.0049871835 -0.079459816 -0.0026655118
0.0048436648 -0.081857406 -0.0035764361
-0.004999998 -0.077304281 -0.00318137
0.004999998 -0.077424809 -0.0024923629
-0.0049999976 -0.072386362 -0.0024601764
0.004999998 -0.072914712 -0.003280133
-0.0049653305 -0.063046113 -0.0042762011
0.004999998 -0.067467526 -0.0024163949
-0.0049999976 -0.06286113 -0.0022764925
0.004999998 -0.062445004 -0.0021075669
-0.0049999985 -0.057188712 -0.0025842092
0.0049999985 -0.058523785 -0.0025441058
-0.0049999976 -0.052334961 -0.0027622797
0.004999998 -0.052512519 -0.002644493
-0.004999998 -0.047160015 -0.0022116357
0.004999998 -0.047193881 -0.0025771493
-0.0049967389 -0.041049868 -0.0030509748
0.004999998 -0.04239966 -0.0027224252
-0.004999998 -0.03790858 -0.0023661056
0.004999998 -0.037497591 -0.0025211582
-0.0047780583 -0.032457408 -0.0050435807
0.0049999994 -0.03218741 -0.0010028668
0.0049999976 -0.032295384 -0.0025361832
-0.004999999 -0.026974106 -0.0024359962
0.0048580272 -0.027074415 -0.0029458248
-0.0049999985 -0.022509627 -0.0021928332
0.0049999976 -0.02234857 -0.0024406135
-0.0049999985 -0.01739715 -0.0023375573
0.0047999979 -0.016055578 -0.0028498408
-0.0049999985 -0.012632073 -0.0025405884
0.0049999985 -0.0125199 -0.0023949111
-0.004999998 -0.0074477959 -0.0023741827
0.0049999994 -0.0072347261 -0.0013640057
0.004999998 -0.0071249367 -0.0021161609
-0.0049999985 -0.0024121914 -0.0027174605
0.0048303772 -0.0021470434 -0.003149617
-0.0050000004 0.0032503977 -0.0033568274
-0.0049999976 0.0025836856 -0.0025673753
0.0049999976 0.0027162917 -0.0025274479
-0.0050000004 0.0098172426 -0.00074723735
-0.004999998 0.0071409838 -0.0027623726
0.0048245597 0.0078165699 -0.0027936036
-0.0050000004 0.0111099 -0.0035717813
-0.0049999985 0.012611051 -0.0025485298
0.0048076906 0.011809512 -0.0036041099
-0.004999998 0.017371232 -0.0024289056
0.0047767842 0.017025048 -0.0031746433
-0.0049999976 0.022385402 -0.0025609748
0.0049999976 0.021571763 -0.0027463648
-0.0049999976 0.027809739 -0.0024890534
0.004999998 0.027504753 -0.0021422105
-0.004999998 0.032508705 -0.0024652421
0.004999998 0.032550804 -0.0024730416
-0.0049931663 0.038589589 -0.0033443633
0.0049999985 0.037408154 -0.0023898685
-0.0048333313 0.042583261 -0.0029808173
0.004999998 0.042798527 -0.0022303145
-0.004999998 0.047377903 -0.0024685678
0.0048260475 0.045436718 -0.0031076814
-0.0048213587 0.052184202 -0.0029265343
0.0049897484 0.050130639 -0.0028039059
-0.0049833814 0.056014501 -0.0044788616
0.0049999976 0.057482123 -0.0023778346
-0.004999998 0.062751055 -0.0024896387
0.004999998 0.062328283 -0.003009198
-0.0049999985 0.067303382 -0.0024926197
0.004999998 0.06762898 -0.002507675
-0.004999998 0.072487324 -0.0026903055
0.0049999985 0.072818018 -0.0025772334
-0.0047777765 0.077525921 -0.0025846434
0.0049999976 0.077215277 -0.0029544425
-0.004999998 0.08069554 -0.0032990477
0.0048148129 0.082134135 -0.0025062221
-0.0036009124 0.0865895 -0.0028879463
0.0025009951 0.087468423 -0.0022804949
0.0049999994 0.086286835 -0.0023956513
-0.0044848481 0.090875931 -0.0030162358
-0.0044651157 0.097477555 -0.002474047
-0.0044454364 0.10248394 -0.0026284368
-0.0045624827 0.10665705 -0.0023443811
-0.0035133862 -0.10465097 0.0019301703
0.002614374 -0.10750004 0.0025527077
0.0049999994 -0.10622417 0.0025099861
-0.0049999985 -0.10239175 0.0025802581
0.004999998 -0.10232185 0.0024302432
-0.0049999976 -0.097455993 0.002478919
0.0048387074 -0.097572424 0.0020691301
-0.004864811 -0.088287205 0.001656466
0.004999998 -0.092571512 0.0025308796
-0.0048148129 -0.086786129 0.0013672409
0.0049972185 -0.085785449 0.0021701555
-0.004999998 -0.082577437 0.002484214
0.0049999985 -0.082405046 0.0025373546
-0.0049999971 -0.077309676 0.0026690455
0.004999998 -0.077676699 0.0024879293
-0.0048004524 -0.068468325 0.0014918097
0.0048461515 -0.072713166 0.0018376518
-0.004999998 -0.068054363 0.002740721
0.0049999985 -0.067239814 0.0025166587
-0.004999998 -0.0614869 0.0023217038
0.0048076906 -0.061603472 0.0017279808
-0.0049999985 -0.057662029 0.0024148554
0.0048333313 -0.057221357 0.0025833796
-0.004999998 -0.052707467 0.0026256146
0.0049999976 -0.052680425 0.0023094472
-0.0048337122 -0.045270331 0.0019584049
0.004999998 -0.046960246 0.0026870866
-0.0049999976 -0.042480275 0.0021654246
0.0046990081 -0.043808065 0.0011196699
-0.0047499975 -0.035901792 0.001954647
0.0049999994 -0.038198385 0.0030815983
0.0049999976 -0.037461676 0.0025111909
-0.004999998 -0.032644194 0.0028099769
0.0049999994 -0.032164365 0.0025215752
-0.0049999985 -0.027998153 0.0021986661
0.004999998 -0.0276586 0.0024037238
-0.0047916649 -0.020657759 0.001393006
0.0048387074 -0.020838546 0.0013066008
-0.004999998 -0.01725897 0.0025971022
0.004999998 -0.017631162 0.0025195784
-0.0049999985 -0.012238674 0.0024024192
0.004999998 -0.012237125 0.0027483141
-0.0049493709 -0.0048098653 0.0015290772
0.0049999976 -0.0074114017 0.0022418525
-0.0050000004 -0.00049360469 0.0024616942
-0.0049999985 -0.0028406822 0.0019326353
0.0048214267 -0.0013795528 0.0012278422
-0.0050000004 0.0041538998 0.0026825294
-0.0049999976 0.003617743 0.0021361411
0.004999999 0.0027451669 0.0023489844
-0.004836231 0.0080548022 0.0020695119
0.004999999 0.0091025913 0.0012939079
-0.0049971044 0.013683911 0.0024189462
0.0049999971 0.012770156 0.0025061893
-0.0046874979 0.016146921 0.00088822225
0.0048630112 0.016561646 0.0019011021
-0.004999998 0.022677256 0.0025593194
0.0049959831 0.023753654 0.0010918383
-0.004999998 0.027167678 0.0022298468
0.0048043453 0.028668396 0.0018043364
-0.0049994662 0.031491242 0.0024847854
0.0045953798 0.033374332 0.00061258848
-0.004999998 0.035736259 0.0021577489
0.004999998 0.037614409 0.0026111077
-0.0048113191 0.039973348 0.0017010516
0.0049999985 0.039900817 0.001757218
-0.004999998 0.047753356 0.0024155308
0.0049999976 0.047592398 0.0026543736
-0.0049999976 0.052519873 0.0027705277
0.004999998 0.052632257 0.0023996364
-0.004999998 0.057721477 0.0019381808
0.004999998 0.05784709 0.0026953309
-0.0048214267 0.060278885 0.0017047283
0.004999998 0.062629782 0.0024924572
-0.0048181796 0.066740699 0.0018310562
0.0047959168 0.066230737 0.0015887877
-0.004999998 0.072240725 0.0024967263
0.0048076906 0.069377303 0.00095827313
-0.004999998 0.077664547 0.0026430401
0.0049999985 0.077050172 0.002762998
-0.0049999976 0.082462698 0.0022595641
0.0049999994 0.082221195 0.0031928197
0.0048113191 0.081112146 0.0021642346
-0.0035913959 0.086183295 0.0018489612
0.0024262508 0.087500043 0.0023220186
0.0050000004 0.086457729 0.0026259171
-0.0044128438 0.092342392 0.0026614252
-0.0043619052 0.097679257 0.0023933346
-0.0045040604 0.10181672 0.0024810634
-0.0044632987 0.10352104 0.0024455991
-0.0034683545 -0.10412005 0.0062522124
0.002278798 -0.10533429 0.0067227618
0.0049999999 -0.10634169 0.0072841789
-0.0049999985 -0.10232022 0.0074009225
0.0049999985 -0.10210063 0.0075252033
-0.004999998 -0.097056061 0.0075801676
0.0049999976 -0.097426005 0.0077580768
-0.0049999976 -0.092187323 0.0074323872
0.0049999985 -0.092228457 0.0076340968
-0.004999998 -0.087694675 0.0074516842
0.0049999976 -0.087380208 0.0071577784
-0.004999998 -0.082243085 0.0074367523
0.004999999 -0.082851 0.007418009
-0.004999999 -0.077526338 0.0074807005
0.004999998 -0.077229917 0.0072873789
-0.0049999985 -0.07233955 0.0075301263
0.004999998 -0.072507769 0.007484565
-0.0049999976 -0.067878112 0.0073990668
0.0047916649 -0.065949976 0.0066750813
-0.0048275841 -0.058023199 0.0061548054
0.004999998 -0.062463477 0.0074629355
-0.0046610152 -0.056328285 0.0062854751
0.0049999976 -0.057643224 0.0075016459
-0.0048147491 -0.052061178 0.0063944757
0.004999999 -0.055654701 -0.0019164062
0.0049999985 -0.050454475 0.0069748252
-0.0047686999 -0.045568313 0.0049270955
0.0049999994 -0.045656037 0.0086256703
0.004999998 -0.047239922 0.0073626093
-0.004999998 -0.04226416 0.0071554831
0.0049999994 -0.042280823 0.0058464333
0.0049999985 -0.042221725 0.0073037166
-0.004999998 -0.037593238 0.0076578483
0.0049999999 -0.037250936 0.0080708619
0.0048461515 -0.037632264 0.0073804818
-0.0049999976 -0.032350089 0.0078092092
0.0049999994 -0.031816483 0.0078158127
0.0048275841 -0.033196025 0.0067210048
-0.0049999985 -0.027344679 0.0074560908
0.0049999994 -0.026318211 0.0059994999
0.0047674403 -0.0247736 0.0062908432
-0.0050000004 -0.021672685 0.0079691671
-0.004999998 -0.023534929 0.0064406265
0.004999998 -0.021980431 0.0063877148
-0.0050000004 -0.019432161 0.0090221763
-0.0049715927 -0.015444798 0.0059977281
0.004999998 -0.019127542 0.0067139156
-0.004999998 -0.012144602 0.0073920502
0.004999998 -0.012616127 0.0076223402
-0.004999998 -0.0073591475 0.0074813259
0.0048326207 -0.0070717316 0.0059922086
-0.004971406 -0.0019341971 0.006330831
0.0048593725 -0.0026787503 0.007279844
-0.0048571406 0.0011966426 0.0065415781
0.0049956581 0.003645553 0.0073501533
-0.004999998 0.0075323679 0.0075854175
0.0049999976 0.0075593395 0.0075520831
-0.004999998 0.012873874 0.007432302
0.0049999971 0.012427712 0.00763305
-0.0049953358 0.016308177 0.0066950526
0.004860064 0.016565245 0.0064548193
-0.004999998 0.022711253 0.0073850071
0.0049999976 0.022455594 0.0076109199
-0.0048831599 0.028105663 0.0067420295
0.004999999 0.027308859 0.0072884005
-0.004999998 0.032272656 0.0076088002
0.0049999976 0.032364156 0.0077542053
-0.004999998 0.036517203 0.0069201803
0.0049999976 0.03736138 0.0075291172
-0.0049999976 0.04290881 0.0077006198
0.004999998 0.04017039 0.0065740459
-0.0049965573 0.041317903 0.0062004616
0.0049999976 0.047801521 0.0073642703
-0.0049792826 0.051007535 0.0069103697
0.0048656533 0.049710631 0.0071337866
-0.004999998 0.057472579 0.0075204787
0.004999998 0.057421114 0.0072840806
-0.0048305066 0.061995786 0.0071277856
0.0049999985 0.062615201 0.0074746045
-0.0049999985 0.067602009 0.0072367783
0.004999998 0.065955475 0.0074047032
-0.0049999985 0.072560169 0.0062464592
0.0049999994 0.070605397 0.0083828531
0.0049999976 0.07241983 0.0075487872
-0.0048387074 0.076236583 0.0066711158
0.0049999994 0.078606747 0.0096761938
0.004999998 0.0774462 0.0075974902
-0.0048306086 0.082422256 0.0069342148
0.0049999994 0.084805571 0.0053275172
0.004999998 0.08268974 0.0071864394
-0.0036631923 0.086661659 0.0067673475
0.0021380272 0.087500043 0.0077123097
0.0050000004 0.086089954 0.0078512672
-0.0045134304 0.0924659 0.007264772
-0.0043886071 0.093026876 0.0067550768
-0.0044017099 0.10117339 0.0075463164
-0.0043275831 0.10603247 0.0071828947
-0.0033842365 -0.10705855 0.012332061
0.0027981396 -0.10750005 0.011944745
0.0049999999 -0.10640475 0.012524762
-0.0047872327 -0.10030659 0.011929937
0.0046186405 -0.097017854 0.011625058
-0.004999998 -0.097546645 0.011461419
0.0048208763 -0.096923299 0.011530699
-0.0049999976 -0.0925138 0.01239553
0.004999998 -0.088640638 0.011991717
-0.004999998 -0.087572411 0.012310093
0.0049999384 -0.083024591 0.011406687
-0.0049999985 -0.082748093 0.012882783
0.0049572764 -0.082864918 0.01151944
-0.004999998 -0.077698819 0.012230331
0.0049999985 -0.07803496 0.012646853
-0.0049999985 -0.072334982 0.01194839
0.004999998 -0.072590962 0.012270808
-0.0048148129 -0.064341769 0.011093066
0.0049999999 -0.068851523 0.014159724
0.004999998 -0.065573007 0.011583517
-0.004999998 -0.059433188 0.012310038
0.004999998 -0.062725484 0.012530902
-0.004999998 -0.057337571 0.012295061
0.0049999994 -0.058005728 0.013031754
0.0049999994 -0.056680486 0.011190603
-0.004999998 -0.052666392 0.012539148
0.0049999994 -0.050567705 0.012096732
0.0048502148 -0.053445004 0.011812444
-0.004999998 -0.047620419 0.012624348
0.0049999999 -0.046269588 0.012094251
0.0049999985 -0.047604553 0.011884675
-0.004999998 -0.042422749 0.011831457
0.0049999994 -0.0420352 0.013788717
0.0049999976 -0.042357005 0.012251386
-0.0049999976 -0.036306307 0.011916609
0.0049999999 -0.037638649 0.012364507
0.0048424583 -0.037178505 0.0121116
-0.0048127384 -0.029146189 0.011767406
0.0049999976 -0.032690305 0.012339946
-0.0050000004 -0.028335903 0.011832533
-0.0046774172 -0.025307376 0.011881969
0.0049999976 -0.02613242 0.01191889
-0.0050000004 -0.020908479 0.010225549
-0.0049999985 -0.021078128 0.012055862
0.004999998 -0.024403937 0.011855807
-0.0050000004 -0.019497633 0.012339506
-0.0049999976 -0.016853398 0.011689317
0.004999998 -0.017770093 0.012277487
-0.0050000004 -0.012622647 0.012703853
-0.004999998 -0.012352086 0.012382443
0.004999998 -0.012582295 0.012823478
-0.004999998 -0.0069431034 0.012598138
0.0048412681 -0.0088250516 0.011708662
-0.0049999985 -0.0023545588 0.012758617
0.0049999976 -0.00077924982 0.011749557
-0.0048360634 0.0034766088 0.012369694
0.004999998 0.0021276553 0.012430425
-0.0047999979 0.0065408554 0.011262759
0.0048113191 0.0069158501 0.012464201
-0.004999998 0.012754293 0.012867802
0.004999998 0.012963181 0.011856947
-0.004999998 0.017929386 0.012615453
0.0049999985 0.01519084 0.010888487
-0.0048510078 0.021143582 0.012111889
0.0049999985 0.022598553 0.012416218
-0.0049999985 0.025061052 0.01149044
0.0049999976 0.027326848 0.012547023
-0.0048725861 0.029974444 0.011944818
0.0049999976 0.032293532 0.0125304
-0.004999998 0.037257742 0.012695214
0.0049999985 0.037293635 0.012373324
-0.004999998 0.042337589 0.012426404
0.004999998 0.042429619 0.012909064
-0.004999998 0.047525905 0.012389627
0.0049999985 0.047296103 0.012372803
-0.004999998 0.052915361 0.012525212
0.004999998 0.050446 0.012420456
-0.0048116995 0.053928915 0.010653294
0.0044186544 0.052931968 0.010053216
-0.004999998 0.059228104 0.011354528
0.0049999994 0.062333778 0.014635701
0.004999998 0.061430711 0.011310752
-0.004999998 0.066867456 0.012166298
0.0049999994 0.066833034 0.013484173
0.004999998 0.067306913 0.012555896
-0.004999998 0.072162941 0.012702386
0.0048525762 0.069587439 0.011327484
-0.0049999985 0.076019228 0.012101936
0.0049999994 0.078920603 0.013159363
0.004999998 0.077543184 0.012327043
-0.0049896287 0.07979469 0.011294593
0.0049999999 0.081495501 0.012175245
0.004999998 0.081994981 0.011922464
-0.0050000004 0.08898706 0.012499884
-0.0036571287 0.086474381 0.012218332
0.0026580994 0.086046383 0.012590487
0.0050000004 0.086028002 0.012346387
-0.0044190479 0.092414372 0.012577322
-0.0044485191 0.095558077 0.012050273
-0.0044803917 0.10099433 0.012345899
-0.0045452765 0.10652542 0.012337533
-0.0033374503 -0.10520802 0.016606998
0.0023706779 -0.10622667 0.016950687
0.0050000008 -0.10623925 0.017921016
-0.0049999985 -0.10253365 0.017439624
0.0049999976 -0.10210554 0.017507793
-0.0049999976 -0.096660599 0.01723966
0.0045270473 -0.094862424 0.016084939
-0.004999998 -0.09217111 0.017330017
0.00483876 -0.090198591 0.017113784
-0.0049999985 -0.087651178 0.017407779
0.004999999 -0.087160826 0.017601367
-0.0049999976 -0.081796981 0.016361142
0.0049999976 -0.08164265 0.016970783
-0.0049999976 -0.077787064 0.017380731
0.0049999976 -0.076237157 0.016150044
-0.004999938 -0.070504509 0.017229931
0.0049999994 -0.071988158 0.017734667
0.0049999985 -0.072409779 0.017819684
-0.0049999985 -0.067506976 0.017846359
0.0049999994 -0.067571357 0.016779758
0.0047975853 -0.067380428 0.017059188
-0.004999998 -0.062884822 0.01738002
0.0049999994 -0.061047439 0.017350104
0.0049999985 -0.062717676 0.017473668
-0.0049999976 -0.057676803 0.017456556
0.0049999994 -0.05846487 0.018047499
0.004999998 -0.057442296 0.017422104
-0.004999998 -0.052374464 0.017419916
0.0049999994 -0.05145986 0.017960407
0.0048360634 -0.052695159 0.017235339
-0.0050000004 -0.04633477 0.019903876
-0.004999998 -0.047519933 0.017477574
0.0049999994 -0.047974207 0.016663982
0.0049999985 -0.047663223 0.017654357
-0.004999998 -0.041850291 0.017432163
0.0048333313 -0.04088898 0.015304621
-0.0050000004 -0.037470531 0.016595194
-0.0048181796 -0.037067998 0.017055275
0.0045652161 -0.035858501 0.014624515
-0.0050000004 -0.033433393 0.01728983
-0.0047916654 -0.031449109 0.016809221
0.0049999976 -0.031529121 0.017033385
-0.0050000004 -0.02847454 0.019171173
-0.004999998 -0.027429705 0.017695291
0.0045498661 -0.027334003 0.013839803
-0.004999999 -0.022529321 0.017574133
0.0049999976 -0.022673637 0.017656621
-0.0050000004 -0.015474839 0.015687944
-0.004999998 -0.018092118 0.016444078
0.0047872327 -0.01779622 0.016442155
-0.004999998 -0.012263952 0.016241727
0.0049999985 -0.012563691 0.017279506
-0.0049999985 -0.0072219847 0.017335538
0.004999998 -0.0071596825 0.017586529
-0.0047674403 -0.0037565643 0.014555855
0.0048181796 -0.0030357996 0.016699567
-0.0048245597 0.0017766641 0.017412854
0.0047916649 0.0024551055 0.01678855
-0.0047802366 0.0074819531 0.015967635
0.0049970252 0.0075540738 0.017326927
-0.004999998 0.012903051 0.017601207
0.0049999976 0.012743375 0.017928632
-0.0049999985 0.017284591 0.017351976
0.004999998 0.017387884 0.01747744
-0.004999998 0.021012433 0.016391883
0.0047826073 0.020135053 0.017483851
-0.0048654722 0.027918139 0.016404651
0.0049991235 0.024020428 0.016750414
-0.0049999985 0.03250958 0.017520536
0.004999998 0.032646537 0.017600374
-0.004772726 0.035373881 0.017466012
0.004999998 0.037883602 0.017873151
-0.0048214267 0.04239263 0.01650933
0.0047959164 0.041687824 0.017021766
-0.0049999985 0.047476221 0.017403388
0.0049999985 0.047370944 0.016924273
-0.0049999976 0.052284595 0.017511677
0.004999998 0.049944647 0.016346315
-0.0049860352 0.058549199 0.016571052
0.0049999994 0.059368506 0.016429849
0.004999998 0.05411236 0.017345106
-0.004999998 0.062654041 0.017407158
0.0049999994 0.061965458 0.018232197
0.004999998 0.062804379 0.017478276
-0.004999998 0.067667089 0.017636465
0.0049999994 0.069672264 0.018778956
0.0049999985 0.067943871 0.017304007
-0.0049999985 0.072654828 0.017453095
0.0049999994 0.07095921 0.01903481
0.0048146886 0.072433457 0.017043201
-0.0047301534 0.074431755 0.016266655
0.0049999999 0.077851713 0.016955845
0.0049999976 0.077444255 0.017490586
-0.0046746023 0.075712241 0.015670687
0.0049999985 0.078724705 0.016778389
-0.0038163534 0.087638721 0.016778396
0.002416895 0.085622713 0.017082023
0.0050000004 0.086300522 0.017825415
-0.0043963958 0.090437107 0.016450426
-0.0043088403 0.093454115 0.016268922
-0.0050000004 0.10305102 0.017371591
-0.004461539 0.10241921 0.017510949
-0.0045168945 0.10584501 0.01696462
-0.0030191308 -0.10715155 0.022618564
0.0026015183 -0.10701659 0.022040946
0.0049999999 -0.10641269 0.022876805
-0.0049999976 -0.10243692 0.022516515
0.0049999985 -0.098182715 0.022224382
-0.0048076906 -0.094828837 0.021963893
0.0049999994 -0.099885687 0.024559671
0.0049999985 -0.097703099 0.022384074
-0.0048387074 -0.091901526 0.021757422
0.0049999994 -0.092177324 0.024199922
0.0049999976 -0.092175372 0.022292506
-0.004999998 -0.087829977 0.022359001
0.0049999994 -0.08724007 0.021016805
0.0046458314 -0.084843509 0.021456383
-0.004811625 -0.079587527 0.022431739
0.0049999999 -0.084397167 0.022672173
0.0049999985 -0.082793012 0.021750307
-0.0047959164 -0.077590987 0.022023637
0.0049999994 -0.079116181 0.024915136
0.0049999985 -0.077341191 0.022048946
-0.0047911722 -0.070957862 0.021891885
0.0049999994 -0.072447032 0.022001745
0.0049999985 -0.071155116 0.021199649
-0.0048181796 -0.066072658 0.021920884
0.0049999994 -0.066037409 0.023297813
0.0048271022 -0.067051329 0.021939043
-0.0049999976 -0.062488452 0.022728903
0.0049999994 -0.06283915 0.021706514
0.004999999 -0.062421195 0.022306021
-0.0050000004 -0.057817459 0.023847412
-0.004999998 -0.057173073 0.02221619
0.0049999994 -0.057311811 0.022665612
0.0047872327 -0.057794545 0.022428948
-0.0050000004 -0.052455634 0.021016993
-0.0049999985 -0.052474398 0.022608524
0.0049999985 -0.05274988 0.022564065
-0.0050000004 -0.047237061 0.02354401
-0.0049963617 -0.046519961 0.022147655
0.0049963426 -0.047835063 0.021681981
-0.0050000004 -0.04240736 0.024058469
-0.0049999985 -0.042523641 0.022080418
0.0048755147 -0.043720223 0.021976808
-0.0050000004 -0.039622501 0.023703288
-0.0049999976 -0.037290785 0.022298003
0.0049999985 -0.037550028 0.022275163
-0.0050000004 -0.032885306 0.024654314
-0.0049999976 -0.033293519 0.021795914
0.004999998 -0.032488938 0.02241879
-0.0050000004 -0.025304975 0.021724671
-0.004999998 -0.027085967 0.022551421
0.0044871792 -0.027091442 0.020620393
-0.004999999 -0.022253102 0.022330731
0.004999998 -0.022467569 0.022552224
-0.0049999985 -0.017536128 0.022376085
0.004999998 -0.016854091 0.022652749
-0.0049999985 -0.012464755 0.022577653
0.004999998 -0.012562667 0.022252103
-0.0049999976 -0.0073115746 0.022652296
