# .PCD v0.7 - Point Cloud Data file format
VERSION 0.7
FIELDS x y z
SIZE 4 4 4
TYPE F F F
COUNT 1 1 1
WIDTH 1273
HEIGHT 1
VIEWPOINT 0 0 0 1 0 0 0
POINTS 1273
DATA ascii
-0.017933773 0.062286913 -0.023393279
0.018003192 0.062521912 -0.023342432
0.020913944 0.062570162 -0.020887364
-0.020829033 0.067925923 -0.020981537
-0.017984398 0.067038409 -0.023350585
-0.01250446 0.069999993 -0.023057451
-0.0069372524 0.069999993 -0.022485185
-0.0034547455 0.069999993 -0.022369554
0.0025985485 0.069999993 -0.022809401
0.0076738661 0.069999993 -0.024131835
0.012613662 0.069999993 -0.021831438
0.017580727 0.065403573 -0.0235931
0.020885326 0.067835987 -0.020893613
-0.020460119 0.07 -0.020558033
-0.017280428 0.07 -0.021684557
-0.013186309 0.07 -0.022763904
-0.0074111829 0.069999985 -0.022327725
-0.002236326 0.069999993 -0.02245573
0.0029452674 0.067862689 -0.022347715
0.0075427289 0.069999985 -0.022522356
0.012229415 0.07 -0.022136092
0.017126424 0.070000008 -0.021731265
0.020394426 0.070000008 -0.020917561
-0.028438114 -0.070000008 -0.017064545
-0.017372074 -0.070000008 -0.018055515
-0.012266204 -0.070000008 -0.017177148
-0.008189274 -0.070000008 -0.017162001
-0.0013253087 -0.070000008 -0.016953234
0.0029127025 -0.070000008 -0.017380172
0.0095964801 -0.070000008 -0.016374724
0.012400728 -0.070000008 -0.018368252
0.017182676 -0.070000008 -0.017158965
-0.030802961 -0.067831546 -0.016131245
-0.028059686 -0.06811931 -0.018225454
-0.022361679 -0.069999985 -0.017214332
-0.017535154 -0.069999993 -0.017441342
-0.012371469 -0.069999985 -0.017449919
-0.0072980416 -0.07 -0.017532922
-0.0024857649 -0.07 -0.017236391
0.002528456 -0.069999978 -0.017528307
0.0074893772 -0.069999978 -0.017311886
0.012103137 -0.068003282 -0.018042352
0.017388243 -0.069999985 -0.01748858
0.022403773 -0.069999978 -0.017680552
0.027962698 -0.069312818 -0.01793007
0.030718448 -0.067727253 -0.016313795
-0.030641496 -0.062366441 -0.016564513
-0.029271323 -0.062389433 -0.019071311
0.029039796 -0.057778075 -0.019010806
0.030804761 -0.062735118 -0.016259037
-0.030737748 -0.057402462 -0.016384432
-0.029331276 -0.057945717 -0.018961782
0.029346308 -0.057370827 -0.018948648
0.030561797 -0.056435529 -0.016605143
-0.030734727 -0.052575238 -0.016390074
-0.029336259 -0.05220253 -0.018953662
0.029422622 -0.052711509 -0.018813204
0.030660581 -0.052324306 -0.016528806
-0.030773861 -0.047578808 -0.016316852
-0.029451117 -0.047517993 -0.018762972
0.029357553 -0.047805537 -0.01892719
0.030649908 -0.047751509 -0.016548773
-0.029844003 -0.040669497 -0.017015589
-0.029320056 -0.042319607 -0.019002249
0.029347735 -0.042558912 -0.018955365
0.030869715 -0.042383488 -0.016137503
-0.030733313 -0.03735156 -0.016392719
-0.029221496 -0.0371437 -0.01916495
0.02953103 -0.03736667 -0.018633269
0.030788202 -0.0374691 -0.016290028
-0.030731484 -0.032870878 -0.016396146
-0.02933706 -0.032535486 -0.018953437
0.029419219 -0.032559689 -0.018816898
0.030795353 -0.03214211 -0.01627663
-0.030695474 -0.027652018 -0.016463524
-0.029386628 -0.027682472 -0.018862333
0.029156998 -0.027383506 -0.019250214
0.030790029 -0.02747941 -0.016286604
-0.030780979 -0.022501664 -0.016303536
-0.029306211 -0.022656886 -0.019022038
0.029264441 -0.0227312 -0.019069318
0.030671198 -0.022417763 -0.016508942
-0.030749418 -0.017327588 -0.016362578
-0.029449709 -0.017578645 -0.018771056
0.02941375 -0.017226351 -0.01882094
0.030795192 -0.017384423 -0.016276943
-0.029658701 -0.012745732 -0.016646495
-0.029378066 -0.012258482 -0.018896438
0.027218575 -0.012623918 -0.018800665
0.030781269 -0.012447376 -0.01630299
-0.030772697 -0.0076847263 -0.016319035
-0.029394597 -0.0072726524 -0.018862309
0.02938593 -0.0072967056 -0.018891919
0.030879682 -0.0074472865 -0.016118851
-0.0307827 -0.0028948917 -0.016300315
-0.029307207 -0.0023746719 -0.019015063
0.029445617 -0.0025950402 -0.018763509
0.030694492 -0.0023568347 -0.01646536
-0.030645031 0.0023521939 -0.016557908
-0.029358855 0.002125778 -0.018923353
0.029323012 0.0024372225 -0.018999722
0.030622378 0.0021841733 -0.016600288
-0.030916601 0.0075620036 -0.016049787
-0.029466318 0.0077207885 -0.018748412
0.029340863 0.0072059454 -0.018951939
0.030696126 0.0076274569 -0.016462298
-0.030751204 0.012475761 -0.016359245
-0.028980432 0.010556128 -0.019260356
0.02922768 0.012433107 -0.019141559
0.030656423 0.012298386 -0.016536593
-0.030735949 0.017705418 -0.016387794
-0.029370988 0.017740708 -0.018931195
0.02938842 0.01773579 -0.018879427
0.030698566 0.017791895 -0.016457731
-0.02920609 0.020792346 -0.016518449
-0.029342994 0.020579863 -0.018892912
0.029389203 0.022359846 -0.018872483
0.030261554 0.022033587 -0.01677978
-0.030704817 0.027885819 -0.016446033
-0.029337546 0.027443282 -0.018956339
0.029460423 0.027466962 -0.018757701
0.029787691 0.029131312 -0.016367681
-0.030674189 0.032482676 -0.016503345
-0.027027542 0.030311476 -0.018843876
0.028486378 0.029728672 -0.019032322
0.030726247 0.032678578 -0.016405948
-0.030708093 0.03725934 -0.016439909
-0.029311247 0.037397496 -0.019013172
0.029461827 0.037614986 -0.018762657
0.03082497 0.037139818 -0.016221222
-0.030770902 0.042578228 -0.016322395
-0.029295143 0.042326838 -0.019023592
0.029381717 0.042675927 -0.018897774
0.030725125 0.04234736 -0.016408037
-0.030667689 0.045000002 -0.015796877
-0.026698673 0.045829523 -0.017212715
-0.022479862 0.045739859 -0.017694687
-0.017569307 0.045000043 -0.017522043
-0.012192414 0.044928219 -0.017755248
-0.0074629788 0.045000032 -0.017627267
-0.002567196 0.045000046 -0.017357485
0.0025724706 0.045257762 -0.017394073
0.0071325069 0.042257924 -0.017662045
0.01258816 0.045000039 -0.017353067
0.01747469 0.045000043 -0.017641852
0.02243758 0.045653749 -0.017649995
0.026330985 0.045681302 -0.017245907
0.030762207 0.045000002 -0.015849438
-0.025204729 0.052995622 -0.015366865
-0.023435781 0.052458204 -0.01787094
0.023421932 0.052634194 -0.017891441
0.025190344 0.052225199 -0.015393773
-0.025158996 0.05775404 -0.015452399
-0.023371536 0.057445098 -0.017966826
0.023195546 0.057271276 -0.018174931
0.02526618 0.057727266 -0.015251936
-0.020022104 0.056216247 -0.015592413
-0.023534231 0.060161665 -0.017921107
0.023431873 0.062798291 -0.017886009
0.02527274 0.063228339 -0.015239663
-0.025212014 0.068026148 -0.015353245
-0.023476126 0.066213675 -0.017810952
-0.016747646 0.069999993 -0.018476833
-0.010019729 0.069999993 -0.019747196
-0.0054776422 0.069999993 -0.018932892
-0.0031915451 0.069999993 -0.01766918
0.00067195413 0.069999993 -0.016978536
0.0090311263 0.069999993 -0.015161758
0.012122054 0.069999993 -0.017096762
0.015957309 0.069999993 -0.016631728
0.023310229 0.067786686 -0.017959518
0.025162356 0.067098737 -0.015446117
-0.022045312 0.069999993 -0.016958915
-0.017415183 0.069999985 -0.01794165
-0.012556722 0.069067128 -0.017669996
-0.0074534887 0.069999978 -0.017354811
-0.0026854326 0.069999985 -0.017618146
0.003014372 0.067510277 -0.018268777
0.0077309376 0.069999993 -0.017212238
0.012746143 0.068457566 -0.017439621
0.017652897 0.06860254 -0.017920343
0.022038473 0.069999993 -0.017006699
0.025195897 0.07 -0.015328261
-0.031398818 -0.070000008 -0.010454332
-0.027435271 -0.070000008 -0.013075106
-0.02369315 -0.070000008 -0.013011359
-0.019786937 -0.070000008 -0.013019682
-0.012925806 -0.070000008 -0.011780313
-0.0079337796 -0.07 -0.012192501
-0.0022602812 -0.070000008 -0.012835594
0.0028157099 -0.070000008 -0.012787881
0.0066984571 -0.070000008 -0.013565445
0.013069937 -0.070000008 -0.011944227
0.016592775 -0.070000008 -0.013310906
0.022267574 -0.070000008 -0.010539647
0.027584892 -0.070000008 -0.012787598
-0.03211673 -0.068171769 -0.012385207
-0.027477648 -0.069999978 -0.012361313
-0.02260296 -0.070000008 -0.012651809
-0.017508319 -0.069999978 -0.012481162
-0.012531091 -0.068008289 -0.012742467
-0.0068652192 -0.068219118 -0.012672874
-0.0022313816 -0.069999985 -0.012804381
0.002453869 -0.069999985 -0.012750448
0.0070311078 -0.069105051 -0.013062667
0.012490993 -0.069999985 -0.011809894
0.017783685 -0.069999978 -0.012558672
0.022627926 -0.069999978 -0.012708738
0.027577173 -0.069999985 -0.012540163
0.031671636 -0.067867473 -0.012743133
-0.03254091 -0.062469486 -0.012511809
0.03268823 -0.062598795 -0.012108655
-0.032540359 -0.057534385 -0.0125027
0.03254059 -0.057377849 -0.012533194
-0.032585829 -0.05243301 -0.012398682
0.032478798 -0.052678786 -0.012710587
-0.032049004 -0.048013553 -0.012902087
0.032644942 -0.047431771 -0.01222992
-0.031530567 -0.042718679 -0.012784024
0.032452483 -0.042651355 -0.012773773
-0.032550916 -0.037696809 -0.012499446
0.032077003 -0.03618731 -0.012635229
-0.0325233 -0.032823958 -0.012585481
0.032504756 -0.032295626 -0.012615045
-0.032542247 -0.027503561 -0.01253263
0.032565702 -0.027523521 -0.012451177
-0.032504831 -0.022467216 -0.012559359
0.031304985 -0.021368064 -0.012704853
-0.031368557 -0.015237559 -0.012700396
0.032451496 -0.017576817 -0.012760378
-0.03158373 -0.012780732 -0.012916652
0.032600548 -0.012804515 -0.012341745
-0.031789079 -0.0081190243 -0.012822714
0.032439802 -0.0072749793 -0.012763253
-0.032454275 -0.0025624889 -0.012710036
0.032093648 -0.0024111397 -0.012771319
-0.031993262 0.001653161 -0.012665194
0.032485928 0.002716369 -0.012642355
-0.032552231 0.0073923087 -0.012438757
0.032510679 0.0073711588 -0.012618653
-0.031748157 0.012582663 -0.012605071
0.032494798 0.012732239 -0.012667998
-0.032511659 0.017455306 -0.01258273
0.031645991 0.016049627 -0.012705012
-0.032109369 0.02133796 -0.012827327
0.032572195 0.022398874 -0.012398412
-0.032580461 0.027402991 -0.012364083
0.032494873 0.027583914 -0.012622755
-0.032559611 0.032639362 -0.012428907
0.032532357 0.032568082 -0.012536538
-0.032573778 0.037319407 -0.012443533
0.03157055 0.0359875 -0.012750007
-0.032175247 0.042440686 -0.012783044
0.032530233 0.042369977 -0.012579219
-0.031160913 0.045000013 -0.012006305
-0.026749726 0.045892209 -0.012710682
-0.022410998 0.045000035 -0.012684527
-0.017630238 0.045000039 -0.012657451
-0.012475959 0.044054981 -0.012691861
-0.0075166309 0.045000032 -0.012488842
-0.0025178706 0.045000032 -0.012890603
0.0022935052 0.044136997 -0.012775152
0.0075527201 0.044911254 -0.012644076
0.01238225 0.043780651 -0.012653691
0.017384924 0.045000035 -0.012587729
0.022390908 0.045000039 -0.012564884
0.026550472 0.045217406 -0.012489374
0.031283494 0.044999994 -0.012570472
-0.026662607 0.052364688 -0.012568335
0.026649939 0.052719027 -0.012599039
-0.026627308 0.057501469 -0.012629377
0.026808769 0.05765336 -0.012281172
-0.026722815 0.062234078 -0.012421234
0.026234783 0.06058519 -0.013059379
-0.026688267 0.067415975 -0.012510109
-0.023228129 0.069999993 -0.012291737
-0.01061582 0.069999993 -0.014681639
-0.0075002229 0.069999993 -0.012571381
-0.0022355542 0.069999993 -0.013884041
0.0018457429 0.069999993 -0.013833715
0.0080452301 0.069999993 -0.013801343
0.013461271 0.069999993 -0.01167126
0.017151397 0.069999993 -0.011104519
0.022416474 0.069999993 -0.010134623
0.026422901 0.067726247 -0.012971751
-0.025864298 0.070000015 -0.012334715
-0.022664174 0.07 -0.01261809
-0.016825102 0.067358479 -0.012780433
-0.012703041 0.069999985 -0.012344944
-0.0070876074 0.069587626 -0.012823724
-0.0024748032 0.069999993 -0.012581973
0.0026462104 0.069999985 -0.012388405
0.0074255271 0.069999993 -0.012369451
0.012249798 0.069999993 -0.012143455
0.017040523 0.069284543 -0.012781635
0.022343492 0.067442924 -0.012961989
0.026003283 0.07 -0.011402701
-0.03059615 -0.070000008 -0.0059589064
-0.029401906 -0.070000008 -0.0062652892
-0.022620086 -0.070000008 -0.0090784673
-0.018664764 -0.070000008 -0.0087919533
-0.01265416 -0.070000008 -0.0094491811
-0.0075072083 -0.07 -0.0072768722
-0.0024309414 -0.070000008 -0.00747988
0.0027727212 -0.070000008 -0.0076940646
0.0060426048 -0.070000008 -0.0075679715
0.012184071 -0.070000008 -0.0081654387
0.018688699 -0.05851667 -0.010510462
0.02224314 -0.070000008 -0.0075800773
0.032110464 -0.070000008 -0.0061926171
-0.033372588 -0.06848152 -0.0072834548
-0.027457641 -0.069999985 -0.0074653453
-0.022349523 -0.069999993 -0.0077129318
-0.018031238 -0.069999985 -0.0071233669
-0.012225248 -0.07 -0.007449362
-0.0074182265 -0.069999985 -0.0072938758
-0.0027216973 -0.069999993 -0.0073599811
0.0028178634 -0.069999993 -0.0076177442
0.007188315 -0.069670729 -0.0079943417
0.012322975 -0.069999978 -0.0076021818
0.016590944 -0.069476224 -0.0076793083
0.022456001 -0.069999985 -0.0073078009
0.027181005 -0.07 -0.007614661
0.033270419 -0.068554312 -0.0074702385
-0.033822872 -0.062558673 -0.007868587
0.033596024 -0.061680406 -0.0079698628
-0.033931196 -0.057592947 -0.0080056814
0.033291906 -0.057790324 -0.0076048002
-0.033672024 -0.050528925 -0.0076750582
0.032855019 -0.051459532 -0.0079362988
-0.034066383 -0.047326736 -0.0074966461
0.032750212 -0.046909671 -0.0076975767
-0.034026664 -0.042332426 -0.0076316115
0.034019046 -0.042409688 -0.0076571763
-0.034062482 -0.03740463 -0.0074795708
0.033139881 -0.035988625 -0.0078707617
-0.034014154 -0.032760672 -0.0076598823
0.033037867 -0.032112326 -0.0074645015
-0.032169703 -0.026261613 -0.0076830829
0.032614052 -0.027346488 -0.0080741383
-0.032952435 -0.02123097 -0.0079071727
0.034012135 -0.022379003 -0.0077231303
-0.033570442 -0.016454065 -0.0077186874
0.034013141 -0.017500043 -0.0076400619
-0.034040123 -0.012646749 -0.0075163902
0.034041312 -0.01206342 -0.0076067396
-0.034038395 -0.0076428787 -0.0075463774
0.034032945 -0.0076107467 -0.0076103816
-0.033190563 -0.0027095743 -0.0082464395
0.033631522 -0.0020917417 -0.0080565708
-0.033738006 0.002556707 -0.0077841314
0.03396596 0.0026285076 -0.0078491895
-0.034083702 0.0074898535 -0.0073435651
0.03374273 0.0063737095 -0.0078181243
-0.034042541 0.012520373 -0.0075511062
0.03310791 0.010966728 -0.0081233531
-0.034030952 0.017418908 -0.007630216
0.034041662 0.017573895 -0.0075034797
-0.03402067 0.02274516 -0.0076573547
0.034143336 0.022275291 -0.007142643
-0.033335716 0.027346211 -0.0073617236
0.0334405 0.026865041 -0.0077360454
-0.033279214 0.030926295 -0.0075504044
0.03289609 0.030859388 -0.0073877196
-0.034090079 0.037522916 -0.0073906118
0.034055255 0.037631415 -0.0075003076
-0.034013774 0.042133506 -0.0076540527
0.034047507 0.04230557 -0.0075587989
-0.032123439 0.044999987 -0.0075281407
-0.026823854 0.044724051 -0.0077441917
-0.022723567 0.044296127 -0.0076950039
-0.017368298 0.045000035 -0.0077600339
-0.013074483 0.043387391 -0.0076319599
-0.0073735202 0.045000043 -0.0073713339
-0.002461175 0.044978131 -0.0073332391
0.0024412621 0.043954585 -0.0076128314
0.0079265768 0.043590989 -0.007669861
0.012661429 0.04498072 -0.007751354
0.017505191 0.043995861 -0.007422193
0.022636063 0.045000032 -0.0074017723
0.026889496 0.045108803 -0.0078938417
0.032221798 0.044999991 -0.0074245473
-0.027551139 0.051557627 -0.0078825587
0.02852664 0.052312858 -0.0074616768
-0.02856393 0.057722837 -0.0073188674
0.028485451 0.057462387 -0.0075865667
-0.028498104 0.062545434 -0.0075301309
0.026951142 0.061861441 -0.0076893731
-0.028332077 0.067779951 -0.0078043686
-0.021334156 0.069999993 -0.0059506916
-0.018494399 0.069999993 -0.0075305868
-0.01279569 0.069999993 -0.0075034979
-0.0076283598 0.069999993 -0.0070647663
-0.0027392644 0.069999993 -0.0061759856
0.0025369194 0.069999993 -0.007922749
0.0078214286 0.069999993 -0.0072493386
0.013969481 0.069999993 -0.0066769831
0.015725274 0.069999993 -0.0093750972
0.021319078 0.069999993 -0.0076739425
0.028613318 0.067590058 -0.0071598799
-0.025905471 0.070000008 -0.0077035469
-0.022453275 0.06870386 -0.0081603341
-0.015766177 0.067028098 -0.0085777929
-0.011485874 0.068977483 -0.0074020978
-0.0081228148 0.068570673 -0.0081008142
-0.0024655086 0.069999993 -0.0079314606
0.0023327803 0.069999985 -0.0074898559
0.0076165958 0.069999985 -0.0071853283
0.012807974 0.069451407 -0.007859786
0.017708661 0.069999985 -0.0074676466
0.022611255 0.07 -0.0075457171
0.027021427 0.068042867 -0.0077431351
-0.032258611 -0.070000008 -0.0018351882
-0.022776218 -0.070000008 -0.0028390319
-0.013250071 -0.070000008 -0.0027889782
-0.0071940832 -0.070000008 -0.0037764485
-0.0016794063 -0.07 -0.0023793124
0.0028855081 -0.07 -0.0025039967
0.0069110044 -0.070000008 -0.0043195407
0.0042775297 -0.041079503 -0.0093600787
0.015083302 -0.070000008 -0.0039415266
0.021181136 -0.070000008 -0.0019726898
0.027670942 -0.070000008 -0.0024392786
0.031845037 -0.07 -0.0018044992
-0.0335964 -0.068782508 -0.0023828545
-0.027982011 -0.069999978 -0.002566095
-0.020427268 -0.067226574 -0.0030410625
-0.01736825 -0.069999985 -0.0027190645
-0.01273337 -0.069999978 -0.0025986794
-0.0072586411 -0.069999978 -0.002282687
-0.0031317445 -0.067797698 -0.0032697523
0.0022423847 -0.069999985 -0.0026759258
0.0079261614 -0.068770513 -0.0026358089
0.012218215 -0.069999993 -0.0025275431
0.015372124 -0.063751712 -0.0034754227
0.020818044 -0.069470398 -0.0035309738
0.02737435 -0.069999993 -0.0023643987
0.032682873 -0.065802053 -0.0031675065
-0.034730192 -0.062456436 -0.0027414756
0.034761492 -0.062461697 -0.0024234026
-0.034169823 -0.057053767 -0.0032442312
0.034731768 -0.057299446 -0.0027254466
-0.034772646 -0.052175116 -0.0023100434
0.034767266 -0.052770395 -0.0023647801
-0.033351168 -0.046528053 -0.0031695829
0.034614142 -0.047595777 -0.0026821133
-0.03404548 -0.043031454 -0.0031164782
0.033779111 -0.041557409 -0.0029800427
-0.033119082 -0.035794217 -0.0031994351
0.034698483 -0.037520081 -0.0030636466
-0.034731325 -0.032461416 -0.0027298592
0.034750327 -0.032566559 -0.0025369322
-0.034768745 -0.027229322 -0.0023497683
0.034774359 -0.027768815 -0.0022926999
-0.034729566 -0.022303218 -0.002747796
0.034752313 -0.022674156 -0.002516588
-0.033903055 -0.017843958 -0.0029679104
0.034779143 -0.017865604 -0.0022441421
-0.034727801 -0.012431404 -0.0027657554
0.033808682 -0.011462088 -0.0034216505
-0.034007739 -0.0085346047 -0.002953772
0.034748346 -0.0081098145 -0.0023943675
-0.034406539 -0.0018823789 -0.0030997579
0.034740847 -0.0021549885 -0.002633123
-0.034724094 0.0026042035 -0.0028033371
0.034734502 0.0022090976 -0.0026975945
-0.034776367 0.0077527831 -0.0022723051
0.034754802 0.007385652 -0.002491358
-0.03474341 0.012290927 -0.002607127
0.034769844 0.012439761 -0.0023385321
-0.033158142 0.017167402 -0.0030198118
0.034214757 0.017672217 -0.0036483533
-0.034008689 0.022822449 -0.0029653918
0.034138776 0.022105211 -0.0030865485
-0.034634702 0.026187288 -0.0027107538
0.034706067 0.027689992 -0.002986588
-0.033980019 0.033609275 -0.0031352374
0.033775065 0.030725224 -0.002678487
-0.034746259 0.037443232 -0.0025781675
0.03471671 0.037538089 -0.0028784331
-0.034754001 0.042324524 -0.0024994949
0.03476603 0.042394321 -0.0023773084
-0.031644169 0.044496417 -0.0027331882
-0.028142022 0.045892049 -0.0026148593
-0.022369849 0.045000039 -0.0024165425
-0.017677378 0.044204071 -0.0029339702
-0.01252027 0.043662991 -0.0028093082
-0.0074469214 0.044215526 -0.00280303
-0.0026521063 0.044490077 -0.0029071935
0.0022871599 0.04539695 -0.0027137438
0.0074543036 0.045000046 -0.0027070607
0.012388978 0.044992965 -0.0025056584
0.017676471 0.045000032 -0.0027053528
0.022399127 0.044449724 -0.0027524948
0.028166762 0.045984171 -0.0025636181
0.032605905 0.044999994 -0.002354031
-0.029327905 0.051706765 -0.0026309376
0.028272066 0.050314154 -0.0030862349
-0.029409871 0.057597626 -0.0020867197
0.029364392 0.057472758 -0.0025492532
-0.029397307 0.062523633 -0.0022144245
0.029095463 0.062855974 -0.0027318147
-0.029304925 0.067484252 -0.0025886213
-0.021663822 0.069999993 -0.0023248969
-0.018131262 0.069999993 -0.0021442813
-0.012097074 0.069999993 -0.0024303317
-0.0069366368 0.069999993 -0.004203123
-0.002877997 0.069999993 -0.0023909649
0.0025083197 0.069999993 -0.0018067914
0.0073941778 0.069999993 -0.0026394394
0.010821894 0.069999993 -0.0017156943
0.029328791 0.0674759 -0.0025420724
-0.026491614 0.066780351 -0.003245275
-0.02206705 0.069062211 -0.0029647087
-0.016429126 0.068953305 -0.002807888
-0.012715943 0.069999985 -0.0022795217
-0.0078233704 0.069999985 -0.0021642605
-0.0021288607 0.06744878 -0.0031952823
0.0022287406 0.069999978 -0.0024553649
0.0073474133 0.070000008 -0.0024609268
0.012626542 0.069999985 -0.002616008
0.01649623 0.067337438 -0.003156021
0.022440802 0.068975672 -0.003194175
0.02713953 0.069999985 -0.0027065587
-0.031284649 -0.070000008 0.0033608354
-0.02598446 -0.070000008 0.0037514265
-0.021672308 -0.070000008 0.0019753389
-0.018466476 -0.070000008 0.0045152586
-0.0074709216 -0.070000008 0.0024286192
-0.0017101698 -0.070000008 0.0049268855
0.0076848008 -0.070000008 0.0013961927
0.014824865 -0.070000008 0.0015284861
0.022818115 -0.070000008 0.0020822175
0.027841564 -0.070000008 0.0018773437
0.031652439 -0.070000008 0.001562654
-0.03264989 -0.068345174 0.0024205609
-0.027669434 -0.069999985 0.0027248994
-0.02269385 -0.069999985 0.0027158484
-0.017610231 -0.069999993 0.002276578
-0.012490422 -0.069999985 0.002069327
-0.0069868932 -0.069999985 0.002440403
-0.0028650353 -0.069704652 0.0018923874
0.0018134512 -0.068565302 0.0023068634
0.0076388214 -0.069999978 0.0024462673
0.012115553 -0.069999985 0.0025841561
0.016728643 -0.067407392 0.0024609684
0.021673411 -0.069343105 0.002002446
0.027490754 -0.069999993 0.0025121064
0.033597931 -0.068602495 0.0021915657
-0.033718534 -0.060613651 0.0022656948
0.034690883 -0.062292941 0.0018906634
-0.034190394 -0.056742162 0.0018619171
0.034748327 -0.057594541 0.0025571922
-0.033690672 -0.05059465 0.0020567859
0.03473587 -0.052378241 0.0026837843
-0.034716323 -0.047845941 0.0028822625
0.034763604 -0.047740903 0.0024019978
-0.034760926 -0.042263731 0.0024290681
0.034753684 -0.042459372 0.002502756
-0.034763683 -0.036899623 0.0024011582
0.034748111 -0.037522271 0.0025593205
-0.034377657 -0.030948943 0.0019088689
0.032753456 -0.031087279 0.0025485945
-0.03476752 -0.027531451 0.0023621852
0.034745377 -0.027342156 0.0025871664
-0.03476698 -0.02237501 0.0023676052
0.034788132 -0.022671252 0.0021527454
-0.03474826 -0.017525161 0.0025579107
0.033340339 -0.016985817 0.0017243695
-0.03475374 -0.013003413 0.0025021583
0.034740392 -0.012540351 0.0026378154
-0.034740217 -0.0074560056 0.0026396301
0.034781031 -0.0076991357 0.0022248982
-0.033074737 -0.0023630897 0.0013955072
0.034790605 -0.0026257583 0.0021276013
-0.034756351 0.0026719216 0.0024756882
0.034785047 0.0026330315 0.0021840394
-0.034665134 0.0078871101 0.002011742
0.034772143 0.0076920781 0.002315159
-0.034758128 0.012570365 0.0024575668
0.03475735 0.012603226 0.0024654525
-0.034758914 0.01722174 0.0024495444
0.034771957 0.017453374 0.0023170619
-0.033024538 0.022919275 0.00084211031
0.03457984 0.022030193 0.001799954
-0.034776874 0.027933383 0.0022670419
0.03299569 0.0276525 0.0019050207
-0.034318741 0.0306587 0.0020430419
0.034768365 0.032328229 0.002353488
-0.034559809 0.035992827 0.0021526231
0.033778336 0.038281661 0.0022363551
-0.034730814 0.042881999 0.0027351268
0.034743261 0.0430719 0.0026086762
-0.032570291 0.044999987 0.0024321682
-0.02787747 0.04592739 0.0025234451
-0.022694476 0.043790247 0.002112149
-0.016940333 0.044067718 0.0020949456
-0.012066633 0.043198109 0.0023181746
-0.0076528979 0.045000039 0.0026539795
-0.002948883 0.045120604 0.0021972361
0.002602654 0.044085212 0.0019447979
0.0074989493 0.045000043 0.0023777497
0.012334188 0.045000039 0.0025107367
0.01722423 0.045311373 0.0023187934
0.022622958 0.045000035 0.0025037974
0.02803448 0.045558151 0.0019391486
0.032832511 0.045000002 0.0024261414
-0.029332364 0.051621497 0.0020388693
0.027471667 0.051293828 0.0023210642
-0.029381374 0.057269756 0.0023765753
0.029226789 0.057629727 0.0022052689
-0.028243572 0.061518367 0.0020407902
0.028996596 0.06244297 0.0021280679
-0.029215643 0.067526244 0.0024955771
-0.022804521 0.069999993 0.0037091887
-0.017729811 0.069999993 0.0022134166
-0.011754058 0.069999993 0.0042116856
-0.0061306953 0.069999993 0.0017064824
-0.0047336007 0.069999993 0.0048430562
-0.0025820187 0.066870913 -0.0044809785
0.0097248461 0.069999993 0.00059365295
0.010306213 0.069999993 0.0031965999
0.017484223 0.069999993 0.0013505123
0.022124413 0.069999993 0.0033118934
0.029326024 0.067408226 0.0029396387
-0.026469212 0.069965415 0.0019288873
-0.022506287 0.069999985 0.0025514762
-0.01721129 0.069999985 0.0021195102
-0.01156872 0.06766665 0.0018760491
-0.0075481045 0.070000023 0.0024796729
-0.0026648331 0.069999985 0.0025664181
0.0020467653 0.06996201 0.0026095938
0.0075868974 0.069999978 0.0022887092
0.01249909 0.07 0.0024056141
0.01670585 0.067919128 0.002545137
0.021758141 0.068957612 0.0020949999
0.026737325 0.069951579 0.0016539176
-0.03140299 -0.070000008 0.0075193639
-0.023133136 -0.070000008 0.0061823544
-0.018132236 -0.070000008 0.007486634
-0.013408741 -0.070000008 0.0068954844
-0.0094138328 -0.070000008 0.0068288418
-0.0085158339 -0.047000002 0.0045297737
0.0016798498 -0.070000008 0.0081340158
0.0066715144 -0.070000008 0.0092548886
0.011874005 -0.070000008 0.0080315135
0.018041983 -0.070000008 0.007722538
0.029356057 -0.070000008 0.0093719559
-0.03299626 -0.068811044 0.0076000951
-0.02717779 -0.068221018 0.0069269431
-0.021820651 -0.069999985 0.0061557316
-0.017451931 -0.069999978 0.0074533201
-0.012330529 -0.069647186 0.0068973391
-0.0073812478 -0.069999993 0.0075492831
-0.0018391432 -0.069797635 0.0070706499
0.0028822653 -0.06692417 0.0053261272
0.0075865076 -0.069189459 0.0071747373
0.012400446 -0.069999978 0.0074628866
0.017469503 -0.068795845 0.0067813108
0.022785371 -0.069999978 0.0074332915
0.027417457 -0.06879133 0.0067534917
0.032536611 -0.068206616 0.0068529593
-0.033171576 -0.062703274 0.0074464288
0.031934459 -0.057614263 0.0066536535
-0.034063566 -0.057111539 0.0072522964
0.033210687 -0.057538126 0.0070717051
-0.034050196 -0.05247755 0.0075264359
0.033793829 -0.052190993 0.0068279905
-0.032754045 -0.046600629 0.0065595084
0.033125188 -0.046930362 0.0069707157
-0.033864282 -0.042811073 0.0071127452
0.034097016 -0.042428032 0.0073348288
-0.034030687 -0.03765386 0.0075923894
0.034092542 -0.037549805 0.007339213
-0.033133503 -0.030890886 0.0076601361
0.033936445 -0.031810354 0.0070181661
-0.033615444 -0.026117409 0.0067962361
0.034011424 -0.027282745 0.0076906062
-0.033486374 -0.022872085 0.0069666691
0.034032304 -0.022708002 0.0075742742
-0.032489587 -0.016197819 0.0068697985
0.033295643 -0.018146154 0.0072652502
-0.033938859 -0.012651861 0.0078740241
0.03410181 -0.012736269 0.0073090224
-0.034065362 -0.0073128515 0.007399702
0.033062477 -0.0066122306 0.0070369439
-0.033376966 -0.0017587106 0.0067404686
0.033846024 -0.0023606357 0.0068820152
-0.034024611 0.0024759155 0.0076382062
0.032122094 -5.9868511e-05 0.0068978374
-0.034087863 0.0074101146 0.0073619909
0.034079183 0.0076900977 0.0074003679
-0.034065615 0.012706482 0.0074797147
0.034116831 0.012733714 0.0072434642
-0.033969022 0.017201325 0.0071389624
0.034018237 0.017533796 0.0076259281
-0.034081943 0.022572417 0.0074948748
0.034080509 0.0227136 0.0074351486
-0.034008224 0.027694756 0.0077808984
0.033649672 0.027385699 0.0065792236
-0.033776939 0.031433314 0.0065585077
0.03408603 0.03262791 0.007392087
-0.034016829 0.037390683 0.0076048533
0.031946436 0.035096567 0.0061522224
-0.033259176 0.039924819 0.0072140517
0.034161586 0.042701881 0.0070694289
-0.032155383 0.044999994 0.0073455898
-0.027480556 0.045005653 0.0071559623
-0.022242805 0.042724885 0.0067236163
-0.01750927 0.045000046 0.0073714945
-0.012070756 0.044404317 0.0073564993
-0.0068440735 0.043473225 0.0072457278
-0.0024173902 0.045000032 0.0076099718
0.002633322 0.045000043 0.0071454979
0.0074970694 0.045063831 0.0073284861
0.012257366 0.045175824 0.0071250428
0.017115708 0.045000043 0.0074547296
0.022071412 0.045000035 0.0071365698
0.027152844 0.045067497 0.0069205649
0.031961571 0.044999987 0.00729645
-0.02844337 0.052359462 0.00773881
0.027765375 0.051004864 0.0068552112
-0.027413093 0.056644008 0.007550972
0.027841596 0.057254296 0.0069729583
-0.028465135 0.062338743 0.0076589962
0.027485926 0.062048186 0.0069869529
-0.02841074 0.067840673 0.0076169767
-0.022742504 0.069999993 0.0072825733
-0.018132307 0.069999993 0.0088210236
-0.01345259 0.069999993 0.0061325021
-0.0091320323 0.069999993 0.007718714
-0.0017086184 0.069999993 0.0075322776
0.0031646872 0.069999993 0.007634812
0.0075821294 0.069999993 0.0081953965
0.012479375 0.069999993 0.006436659
0.018235996 0.069999993 0.006236081
0.024976697 0.069999993 0.0062547177
0.028338479 0.067722209 0.0074953912
-0.026067276 0.065935344 0.0067419792
-0.02329861 0.067425743 0.0074297674
-0.01780084 0.069999978 0.0074452739
-0.012566798 0.07 0.0074113379
-0.007298877 0.069999993 0.0077770744
-0.0023641167 0.07 0.0073321955
0.0021344095 0.069999978 0.0074171005
0.0071519669 0.069491431 0.0062069371
0.012838507 0.068793975 0.0075647444
0.01793208 0.068501785 0.0075316909
0.022380196 0.070000008 0.007061529
0.026984364 0.069917113 0.0065162252
-0.030315775 -0.070000008 0.010844783
-0.028642548 -0.070000008 0.013896298
-0.021885399 -0.070000008 0.014358027
-0.015806654 -0.070000008 0.012255308
-0.011526334 -0.070000008 0.014569589
-0.0092430804 -0.070000008 0.010705578
0.0031544901 -0.070000008 0.013721122
0.0075344848 -0.070000008 0.012884419
0.013231011 -0.070000008 0.011783229
0.016678838 -0.070000008 0.01010692
0.022642724 -0.070000008 0.012309037
0.028910976 -0.070000008 0.011683819
-0.031665325 -0.068184607 0.012088932
-0.026470529 -0.067777768 0.012404678
-0.021315729 -0.069643803 0.012576601
-0.016717946 -0.068902791 0.011699377
-0.011898163 -0.069596976 0.011782599
-0.0070039439 -0.068727173 0.012586747
-0.0031485429 -0.069110774 0.012228242
0.0023111913 -0.069999985 0.012640823
0.0062569147 -0.06909132 0.011519155
0.012509249 -0.069999985 0.012360185
0.017171809 -0.069999985 0.012689524
0.022715781 -0.069999978 0.012528086
0.027353542 -0.069999993 0.012399187
0.031597633 -0.066557057 0.011978451
-0.031994138 -0.06267646 0.012749381
0.031867057 -0.062304679 0.0116997
-0.032505389 -0.057615191 0.012654453
0.032495879 -0.057597812 0.012649805
-0.031525426 -0.052393951 0.011774574
0.031418137 -0.052703049 0.012241497
-0.030604409 -0.047139857 0.011514032
0.032582354 -0.047251325 0.012382903
-0.032631226 -0.042295996 0.012264516
0.032536928 -0.0423919 0.012511876
-0.031468287 -0.037645575 0.011971222
0.032621045 -0.037575979 0.012305191
-0.031475648 -0.031968605 0.011989732
0.031939428 -0.033409953 0.012150509
-0.031094711 -0.025465848 0.011872035
0.032505069 -0.027340116 0.012640019
-0.03177854 -0.021033645 0.011380466
0.032551508 -0.022434844 0.012476582
-0.032609262 -0.016539458 0.012233815
0.032532796 -0.017429067 0.012592383
-0.03253768 -0.012542484 0.012529543
0.031776119 -0.01180381 0.01200391
-0.032466605 -0.0074046347 0.012735575
0.032612916 -0.00761801 0.012309966
-0.03267277 -0.0028074121 0.012182321
0.032496158 -0.0025651166 0.012677011
-0.031754803 0.0030357037 0.01148957
0.030620622 0.00071941735 0.012450103
-0.031742483 0.0068680122 0.011809931
0.032479085 0.0070941113 0.012710172
-0.029196909 0.015364039 0.010750928
0.032599572 0.012361136 0.012371097
-0.031217091 0.016997458 0.01195913
0.031858414 0.015953194 0.012402691
-0.031041093 0.020741738 0.012191761
0.032593258 0.02275005 0.012398124
-0.031185301 0.027797643 0.011935944
0.032502789 0.027459152 0.01259288
-0.032372721 0.031009162 0.012209834
0.032221377 0.032122329 0.011972078
-0.032466326 0.03728928 0.012736782
0.032510657 0.03755204 0.012565174
-0.032470755 0.042540029 0.012681118
0.030840266 0.037234034 0.011219548
-0.030993538 0.043356907 0.010932565
-0.026952485 0.045416664 0.011983259
-0.021493431 0.044198774 0.012117995
-0.01738748 0.045000043 0.012543776
-0.012496504 0.044433832 0.012561435
-0.007432817 0.045365408 0.012240548
-0.001967133 0.043201976 0.01215822
0.0021957441 0.043919351 0.011828206
0.0072944458 0.044699661 0.0124152
0.012193976 0.043258756 0.012083085
0.016674696 0.044276394 0.011930647
0.021941639 0.045233477 0.012113517
0.026339918 0.045943711 0.01181611
0.031093152 0.045000006 0.01217936
-0.026883675 0.051235225 0.012030637
0.025813587 0.050976489 0.012071513
-0.026741736 0.057562724 0.012406792
0.025749926 0.056543153 0.01246127
-0.026750389 0.062508993 0.012398964
0.026522461 0.062137015 0.012533731
-0.026420841 0.06556201 0.012111384
-0.02304139 0.069999993 0.010882756
-0.015187548 0.069999993 0.01183232
-0.01412655 0.069999993 0.012982612
-0.0097327763 0.069999993 0.01294107
-0.0044495715 0.069999993 0.011400789
0.0017611746 0.069999993 0.014723515
0.007713438 0.069999993 0.014837515
0.012924194 0.069999993 0.012309854
0.017173203 0.069999993 0.010854801
0.022285108 0.069999993 0.01268245
0.025123132 0.064484067 0.011987809
-0.02578352 0.070000008 0.012244898
-0.02292111 0.068397395 0.012410787
-0.017430168 0.069999978 0.012210214
-0.011482478 0.068023637 0.011875984
-0.0072379308 0.067021266 0.011986969
-0.0030270054 0.067067236 0.011500443
0.0024226215 0.067142844 0.011990366
0.007531859 0.068973921 0.011729055
0.011072192 0.066324696 0.011540923
0.016793258 0.067149743 0.012032773
0.022850169 0.069225393 0.012211593
0.025901351 0.07 0.012052399
-0.027733913 -0.070000008 0.015878201
-0.022831494 -0.070000008 0.01790238
-0.017967401 -0.070000008 0.018083774
-0.011898458 -0.070000008 0.017105795
-0.0070592351 -0.070000008 0.017575696
0.0032933732 -0.070000008 0.017271865
0.0071073631 -0.070000008 0.017827334
0.014263258 -0.070000008 0.018448846
0.015 -0.070000008 0.015014775
0.022671059 -0.070000008 0.017708739
0.027066592 -0.070000008 0.017833706
-0.030638967 -0.067575671 0.01645053
-0.027980875 -0.067833349 0.017211258
-0.022620106 -0.069999978 0.017475531
-0.017468575 -0.069999993 0.017607808
-0.010610119 -0.06534756 0.01597145
-0.007655859 -0.069999993 0.017556638
-0.0024503763 -0.069999985 0.017319588
0.002347121 -0.069194734 0.016858878
0.0071649957 -0.069665723 0.016339116
0.011429104 -0.066329859 0.015689468
0.017035797 -0.069074772 0.016259344
0.02137438 -0.067366078 0.017067689
0.027438309 -0.068931162 0.017589431
0.028975127 -0.06474302 0.01472977
-0.030778019 -0.062713169 0.016309075
-0.027224844 -0.05973281 0.017832385
0.029244887 -0.062795743 0.019131815
0.030711291 -0.062168088 0.016433917
-0.03078571 -0.057767477 0.015604893
-0.029360943 -0.057502069 0.018926259
0.029302055 -0.057224717 0.019047143
0.030621685 -0.057599861 0.016601581
-0.03071552 -0.052584115 0.01642601
-0.029430443 -0.052530583 0.018808361
0.027659042 -0.050443411 0.018187536
0.029163783 -0.052262977 0.01629848
-0.030708829 -0.047766954 0.016438531
-0.029488573 -0.047856651 0.018707711
0.029325508 -0.047294963 0.018967036
0.030747166 -0.047587708 0.016366808
-0.029783098 -0.040418219 0.016247235
-0.029045612 -0.038817249 0.01730991
0.029386915 -0.042415176 0.018871184
0.030830627 -0.042490453 0.016210645
-0.030804863 -0.037630051 0.016258849
-0.029331148 -0.037512701 0.018976409
0.029369246 -0.037724074 0.018892301
0.030711751 -0.037425585 0.016433058
-0.028374158 -0.029676955 0.015249549
-0.029379763 -0.032447714 0.018879948
0.029418731 -0.032420952 0.018813454
0.030731332 -0.032358442 0.016396426
-0.029187877 -0.029039942 0.015216578
-0.027557982 -0.027960587 0.018641002
0.026850551 -0.023185184 0.018127514
0.030776201 -0.027512344 0.016312473
-0.030430933 -0.022969676 0.015249302
-0.029452108 -0.022548573 0.018750457
0.029257592 -0.022677572 0.019076968
0.030054275 -0.023070849 0.014933566
-0.03064323 -0.017275097 0.016561264
-0.029303603 -0.017701436 0.019013671
0.029376587 -0.017183764 0.018887533
0.030581979 -0.017302092 0.016675878
-0.030713981 -0.012776959 0.016428884
-0.0290618 -0.014410034 0.017766081
0.029356072 -0.012532266 0.018920111
0.030801801 -0.013074033 0.016264565
-0.02969772 -0.0053113885 0.015625186
-0.029402627 -0.0078877788 0.018859144
0.02935528 -0.0076516708 0.018913012
0.028761558 -0.0067526652 0.014443653
-0.030851984 -0.0024966986 0.016170679
-0.029286657 -0.0031598432 0.019054083
0.027432982 -0.0039925287 0.018778121
0.030195437 -0.0030030697 0.015174733
-0.030698717 0.0028867156 0.016457442
-0.029434456 0.0026193496 0.018800464
0.028725199 0.0040477226 0.016986243
0.030757396 0.0022722373 0.016347654
-0.030285317 0.0073635252 0.015158338
-0.02927321 0.0075068367 0.019071059
0.029362239 0.0076707755 0.018917877
0.030763933 0.0078218542 0.016335422
-0.029793466 0.014195577 0.015687576
-0.029354259 0.011834348 0.018119466
0.028374881 0.010082168 0.018241419
0.028833928 0.011659573 0.016453812
-0.030752614 0.017454898 0.016356597
-0.02689915 0.014236017 0.018349539
0.029317167 0.017488044 0.018996317
0.027438903 0.014848151 0.013237415
-0.03027002 0.022152085 0.015633989
-0.029481508 0.022401273 0.018703938
0.02822805 0.015823757 0.016074723
0.030771939 0.022453515 0.016320448
-0.030725708 0.02759753 0.016406951
-0.029363129 0.027244901 0.018921813
0.029350702 0.02774954 0.018947495
0.029352659 0.028427271 0.015149239
-0.030643418 0.032533646 0.016560925
-0.029330887 0.032455381 0.018973492
0.027636085 0.031564351 0.01872891
0.03074172 0.031960424 0.016376982
-0.029020315 0.037790764 0.015966812
-0.029331926 0.03743431 0.017796168
0.029360669 0.037473533 0.018940464
0.030768691 0.037631225 0.016326539
-0.030711532 0.04224946 0.016433476
-0.02931072 0.042416129 0.01898402
0.029370878 0.04278795 0.018896842
0.030653609 0.042433362 0.016541855
-0.030375082 0.045000002 0.016111441
-0.026151579 0.044938941 0.01538987
-0.022643084 0.044920404 0.016690861
-0.017541923 0.045000039 0.017355742
-0.012579674 0.043722708 0.016673436
-0.0075581013 0.044199552 0.017363725
-0.0027352774 0.044017132 0.016975122
0.0024070481 0.044122495 0.017194076
0.0075500924 0.045528572 0.016434755
0.012456924 0.045000046 0.017409835
0.016401475 0.042828009 0.01632555
0.022210652 0.044631872 0.016627135
0.025156168 0.043919448 0.014854018
0.03071689 0.045000002 0.015679531
-0.025168877 0.05269454 0.01543392
-0.023166271 0.049992353 0.016582493
0.022156568 0.052615784 0.017151089
0.025204793 0.052551247 0.015366748
-0.025225867 0.057128683 0.015327333
-0.023351602 0.055905603 0.017083444
0.023478724 0.055300627 0.017369198
0.022105247 0.055635534 0.012819131
-0.025221417 0.063369088 0.015335651
-0.02180131 0.060756914 0.016958516
0.023385042 0.059711911 0.017611623
0.021410728 0.061085287 0.014453997
-0.025220167 0.068669602 0.015337995
-0.023042159 0.067223296 0.017305201
-0.017351583 0.069999993 0.017775629
-0.012064449 0.069999993 0.017630637
-0.0068252413 0.069999993 0.018876404
-0.0025218064 0.069999993 0.018744607
0.011835181 0.069999993 0.018999089
0.019670207 0.048506174 0.010868573
0.02333766 0.06761378 0.017959824
0.025253959 0.067671619 0.015274791
-0.021898603 0.069999993 0.017046075
-0.016898269 0.067254893 0.01664662
-0.012028858 0.06966392 0.017083308
-0.0075743664 0.069999985 0.017570371
-0.0025845887 0.065139502 0.015619231
0.0027057142 0.069999985 0.017057847
0.0078836763 0.066956513 0.016488494
0.012584629 0.070000008 0.017279834
0.016861135 0.069999985 0.016317047
0.021677153 0.070000023 0.01691889
-0.025589172 -0.070000008 0.020908928
-0.022644915 -0.070000008 0.021886636
-0.019275032 -0.070000008 0.022976888
-0.012338928 -0.070000008 0.022231648
-0.0076460037 -0.070000008 0.021913007
0.0033777158 -0.070000008 0.020797476
0.01405167 -0.070000008 0.023173004
0.017559184 -0.070000008 0.023950242
0.02201931 -0.070000008 0.023001008
-0.026702004 -0.068157479 0.022132002
-0.022724189 -0.069759347 0.022767141
-0.016529152 -0.068535306 0.022144556
-0.01287841 -0.06768167 0.022217957
-0.0077559911 -0.06996081 0.021715207
-0.0020479469 -0.065664642 0.020763844
0.0022088045 -0.069999978 0.022447122
0.0073673557 -0.067924127 0.02159765
0.010829718 -0.065706462 0.021772798
0.01707088 -0.069146395 0.020935725
0.021461848 -0.068621866 0.021726685
0.026458854 -0.066923402 0.021275574
-0.024732664 -0.058930475 0.019772293
-0.024707567 -0.062425248 0.024758793
0.024768749 -0.062408593 0.024711946
0.026938185 -0.060970839 0.022036841
-0.025277244 -0.057032291 0.021557802
-0.024781533 -0.05776608 0.024692293
0.024755472 -0.0573822 0.024715286
0.026512664 -0.055255976 0.022120824
-0.02664924 -0.052104544 0.022433609
-0.024806881 -0.052332267 0.024667988
0.023193548 -0.051041458 0.020816104
0.026812401 -0.050464053 0.0217977
-0.026205992 -0.047359485 0.02181261
-0.024705557 -0.047322329 0.024758797
0.024665102 -0.046931174 0.024805395
0.026641706 -0.04772168 0.022442799
-0.02602078 -0.043117251 0.021485064
-0.024706712 -0.042051781 0.024764838
0.024803692 -0.042494483 0.024654282
0.026850216 -0.042794168 0.022188725
-0.026842548 -0.037395053 0.022198072
-0.024651606 -0.037428938 0.024813054
0.024775745 -0.038057093 0.024703624
0.026307898 -0.036432184 0.021581572
-0.027027259 -0.032550924 0.021973006
-0.024686851 -0.03169734 0.024778703
0.024720857 -0.032429338 0.024745312
0.026086982 -0.032027654 0.022082239
-0.026767669 -0.027565254 0.022289319
-0.024728796 -0.027289515 0.024732698
0.024738533 -0.027897216 0.024731226
0.026816107 -0.026005009 0.020585189
-0.026627516 -0.021426598 0.021706054
-0.02476027 -0.02269792 0.024709294
0.024681436 -0.021812519 0.024788892
0.027054781 -0.022397725 0.021939268
-0.026283501 -0.015575089 0.021579403
-0.024853319 -0.016645676 0.024619408
0.024772234 -0.017419895 0.024700833
0.026287487 -0.016586138 0.021391084
-0.026780698 -0.01222021 0.022198467
-0.024775235 -0.012647994 0.024685584
0.024777094 -0.012814554 0.024696091
0.026623823 -0.012929845 0.022158628
-0.026783552 -0.0075931861 0.022269962
-0.024758533 -0.0078153182 0.024711644
0.024787059 -0.0069251941 0.024679802
0.026255921 -0.0071661756 0.021313997
-0.026744839 -0.0013325969 0.021225896
-0.024705719 -0.0030591518 0.024765454
0.024640789 -0.0019031842 0.02481976
0.026856482 -0.002593732 0.022181101
-0.027080247 0.0023158223 0.021908445
-0.024738703 0.0027348881 0.024731465
0.024771672 0.0027676974 0.024695966
0.025470728 0.0024776007 0.020470109
-0.026801135 0.0080174906 0.022151707
-0.024676656 0.0070118853 0.024795834
0.024741357 0.0075474558 0.024732416
0.027034137 0.0075422502 0.021964628
-0.026822237 0.012942728 0.022222826
-0.024733799 0.012448053 0.024746196
0.024673631 0.0121235 0.024799565
0.026794402 0.012302089 0.02225673
-0.025952062 0.017888241 0.021575674
-0.024711862 0.017324664 0.024758914
0.02477284 0.017317623 0.02469736
0.02662245 0.018177781 0.021841684
-0.025858261 0.022158086 0.021963933
-0.024725204 0.023346478 0.024749687
0.024713175 0.022906026 0.024766913
0.026550204 0.021341145 0.021767709
-0.024860023 0.024592815 0.019996475
-0.024746874 0.028208164 0.024726838
0.024742436 0.027290884 0.024734834
0.025192061 0.02444911 0.021189718
-0.026477518 0.032666136 0.022141244
-0.024642415 0.031989403 0.024822094
0.024736656 0.033095907 0.024736166
0.02595605 0.030909266 0.021600414
-0.026821068 0.037358027 0.02222424
-0.020071818 0.040096454 0.019313009
0.024660222 0.037280224 0.024808874
0.026934747 0.037702911 0.022085736
-0.026950173 0.042061903 0.022066923
-0.024723029 0.042129379 0.024755672
0.024770606 0.042693309 0.024695834
0.026188729 0.041047145 0.021671567
-0.026255939 0.045000009 0.021630431
-0.021965643 0.045848094 0.021782417
-0.017238138 0.044824231 0.022274489
-0.012546455 0.044210866 0.02202867
-0.0075750831 0.044571422 0.022258952
-0.0029731647 0.043490738 0.022163767
0.0027223458 0.044989228 0.022406146
0.0072778407 0.044548083 0.022016147
0.012701011 0.045144793 0.022127505
0.017484935 0.046271302 0.022550674
0.021595767 0.046002135 0.021366481
0.026169572 0.045000013 0.021657925
-0.02081015 0.052671678 0.020997338
-0.017993396 0.052460063 0.023349253
0.017222086 0.051616047 0.022573566
0.020916952 0.052090995 0.020884732
-0.020823747 0.057225641 0.020963285
-0.017753659 0.057552595 0.023538588
0.018055238 0.057647578 0.023303712
0.020842692 0.057925589 0.020966172
-0.020997474 0.062469956 0.020790726
-0.017936161 0.062336273 0.023395712
0.017796887 0.062809281 0.023507401
0.020914502 0.062552951 0.020869985
-0.02080466 0.067109913 0.020986145
-0.017896669 0.067564137 0.023267642
-0.01229661 0.069999993 0.02153334
-0.0080922591 0.069999993 0.022744022
-0.002619728 0.069999993 0.023695104
0.00079325453 0.069999993 0.021863049
0.0072837244 0.069999993 0.021293959
0.012825774 0.069999993 0.021909025
0.018334292 0.066306069 0.021602083
0.020857252 0.066981234 0.020936323
-0.02024094 0.07 0.020868821
-0.017015548 0.069999985 0.021957664
-0.012330042 0.069999985 0.022738138
-0.007427407 0.069999978 0.022709176
-0.0015879484 0.069689684 0.021884272
0.002233044 0.067777775 0.021924855
0.007473032 0.069999985 0.02248024
0.012646944 0.067920126 0.022001335
0.017087331 0.070000023 0.021528075
-0.016840952 -0.070000008 0.026371216
-0.011791766 -0.070000008 0.026966762
-0.0074235145 -0.046666674 0.0222813
-0.0017613801 -0.070000008 0.028037017
0.0026188612 -0.070000008 0.028078601
0.0080852211 -0.070000008 0.028072229
0.011930205 -0.070000008 0.028047297
0.017370177 -0.070000008 0.028713524
-0.02081264 -0.067435682 0.025588054
-0.018185036 -0.068381026 0.027885545
-0.012583327 -0.068607286 0.027058056
-0.0071822302 -0.069999993 0.027564736
-0.0011811021 -0.067778498 0.026062792
0.0020770424 -0.064558022 0.025831055
0.00665014 -0.068666317 0.026881786
0.011571929 -0.068360776 0.026801657
0.01821092 -0.068154939 0.028054077
0.021801755 -0.064685084 0.025278343
-0.02191207 -0.062493686 0.027077274
-0.017656559 -0.059232898 0.028854338
0.018506533 -0.060376711 0.027337378
0.021953201 -0.060602926 0.026209949
-0.021474212 -0.055831254 0.026746154
-0.018800614 -0.057926614 0.029434303
0.018942706 -0.057693135 0.029345784
0.022266263 -0.055808336 0.026213264
-0.021349153 -0.052773681 0.026981434
-0.018896936 -0.052549616 0.029371927
0.018788932 -0.052909095 0.029441768
0.021193778 -0.052541979 0.026761713
-0.02264671 -0.0461783 0.025823681
-0.019121315 -0.047800172 0.029236436
0.019517647 -0.046715606 0.028514944
0.021041343 -0.047500812 0.025703296
-0.021683086 -0.040416781 0.025117837
-0.017904419 -0.040197354 0.028324017
0.017802861 -0.038714767 0.027654946
0.022197835 -0.042638857 0.026842743
-0.021491792 -0.036261577 0.026328105
-0.018850014 -0.037528463 0.029391199
0.018930916 -0.033182535 0.028440779
0.021792667 -0.035715971 0.026883667
-0.021447496 -0.031199453 0.025278708
-0.018920798 -0.032885853 0.029363541
0.019060371 -0.0325149 0.029277315
0.021957047 -0.032841619 0.025955239
-0.022058951 -0.02801986 0.026471727
-0.016696461 -0.028044334 0.026535282
0.017389992 -0.025765706 0.02757998
0.021782467 -0.026825575 0.026116939
-0.022272976 -0.022014385 0.025972046
-0.017100161 -0.020417577 0.028745415
0.016788362 -0.020110106 0.02639753
0.022631345 -0.022944169 0.026385488
-0.020935057 -0.018252347 0.026043987
-0.018808449 -0.018144507 0.029420171
0.018830691 -0.017538548 0.029417656
0.021304807 -0.017535398 0.025909215
-0.02205489 -0.012383394 0.026960056
-0.019050678 -0.012652591 0.029282557
0.018981244 -0.012566019 0.029324377
0.02127861 -0.010918277 0.02506182
-0.022506773 -0.0070493342 0.026217164
-0.01752755 -0.0078837303 0.027735
0.019003471 -0.007755484 0.029318944
0.02227322 -0.0075295102 0.026780879
-0.021639772 -0.0018973029 0.025743516
-0.018803502 -0.0023171424 0.029432651
0.018878523 -0.0025367902 0.029381867
0.021675985 -0.0013860111 0.025741046
-0.021147557 0.0025241743 0.025865434
-0.018931987 0.0020790899 0.029354205
0.018987963 0.0024628495 0.029318087
0.022200633 0.0025457067 0.026840448
-0.022081951 0.0075181304 0.026937855
-0.018861134 0.0075330418 0.029396841
0.018868789 0.0073623974 0.029390004
0.021417029 0.0097572207 0.025308296
-0.022220179 0.012550929 0.026824405
-0.016831141 0.014971751 0.026174329
0.018887961 0.012538392 0.029380113
0.022173446 0.011662758 0.026088381
-0.021392258 0.017160777 0.025591122
-0.018785775 0.017499296 0.02944126
0.018846055 0.017136892 0.029403886
0.021135705 0.016611906 0.026496213
-0.021509193 0.023120668 0.025122205
-0.018925717 0.022435134 0.029356193
0.018404402 0.018841919 0.028172126
0.021668177 0.022003796 0.025708513
-0.022669151 0.025838941 0.026256466
-0.018939896 0.027406728 0.0293425
0.018902821 0.027073985 0.029369267
0.022109319 0.026679792 0.02538958
-0.021502998 0.032987129 0.026468467
-0.019040065 0.032484248 0.029292567
0.019021131 0.032394387 0.029310238
0.021122424 0.031536575 0.025238704
