ply
format ascii 1.0
element vertex 1665
property float x
property float y
property float z
end_header
-0.047180 -0.184742 0.692811
-0.039881 -0.187775 0.690673
-0.308565 -0.176282 0.696145
-0.072886 -0.171153 0.699751
-0.066328 -0.173521 0.698078
-0.057080 -0.174396 0.693793
-0.049692 -0.176569 0.690903
-0.075494 -0.163269 0.698706
-0.067075 -0.164272 0.695933
-0.058669 -0.164987 0.691994
-0.306467 -0.153464 0.699638
-0.084649 -0.152873 0.698617
-0.077098 -0.154360 0.696593
-0.067229 -0.154414 0.692953
-0.061032 -0.157129 0.690704
-0.085390 -0.144193 0.698038
-0.076802 -0.144338 0.694415
-0.069124 -0.145308 0.691252
-0.094442 -0.131130 0.699026
-0.086616 -0.134348 0.697149
-0.077043 -0.134214 0.693609
-0.070833 -0.134659 0.690845
-0.095286 -0.124206 0.698241
-0.087142 -0.124219 0.694280
-0.077129 -0.124484 0.691510
-0.070965 -0.127620 0.690309
-0.307226 -0.111319 0.696194
-0.094283 -0.114427 0.697843
-0.086885 -0.114334 0.693390
-0.079307 -0.114720 0.690691
-0.095105 -0.104140 0.698103
-0.086898 -0.104490 0.693625
-0.079844 -0.104290 0.690923
-0.096010 -0.094047 0.697840
-0.086883 -0.094469 0.693636
-0.079477 -0.093963 0.691228
-0.095155 -0.084899 0.697853
-0.087018 -0.084441 0.694272
-0.078550 -0.083668 0.691373
-0.093575 -0.076481 0.699422
-0.086951 -0.074487 0.696790
-0.077286 -0.074087 0.692620
-0.071344 -0.069910 0.690346
-0.085233 -0.065899 0.698631
-0.076907 -0.064139 0.694844
-0.070517 -0.063188 0.690931
-0.075749 -0.055228 0.697575
-0.068509 -0.053531 0.692532
-0.073686 -0.047031 0.698846
-0.066479 -0.044368 0.695800
-0.059137 -0.042980 0.691802
-0.064599 -0.035734 0.698647
-0.057422 -0.034385 0.694065
-0.050586 -0.031146 0.690923
-0.055912 -0.026631 0.697413
-0.047624 -0.023846 0.693708
-0.040984 -0.019876 0.690298
-0.045772 -0.016866 0.697166
-0.038228 -0.012913 0.693721
-0.032015 -0.009765 0.690861
-0.034827 -0.005876 0.697020
-0.027589 -0.002824 0.694311
-0.020217 -0.000764 0.691392
-0.024718 0.002957 0.698350
-0.016649 0.005329 0.696274
-0.008743 0.007516 0.693125
-0.001635 0.010481 0.690423
-0.005764 0.014196 0.696622
0.001281 0.017573 0.692873
0.004950 0.023653 0.696217
0.012032 0.026199 0.694260
0.025476 0.029467 0.693953
0.024544 0.031438 0.696296
0.031547 0.031455 0.692409
0.047387 0.038117 0.691985
0.050033 0.038410 0.691173
-0.313144 -0.274325 0.705697
-0.306154 -0.272549 0.703724
-0.297499 -0.272884 0.707398
-0.291916 -0.273098 0.709977
-0.306023 -0.264356 0.702424
-0.298175 -0.264385 0.707317
-0.305956 -0.254236 0.706363
-0.300098 -0.256363 0.708405
-0.313887 -0.243899 0.708444
-0.307778 -0.246457 0.708062
-0.301107 -0.248765 0.709836
-0.314079 -0.222117 0.707805
-0.310035 -0.221002 0.708494
-0.033355 -0.220242 0.707337
-0.027037 -0.222892 0.706728
-0.015928 -0.220506 0.700856
-0.313449 -0.215211 0.707849
-0.309712 -0.214737 0.708524
-0.053475 -0.211143 0.708696
-0.046904 -0.213414 0.706526
-0.037328 -0.214159 0.703627
-0.027666 -0.216757 0.701764
-0.312753 -0.204174 0.703542
-0.307281 -0.203594 0.705988
-0.065170 -0.201291 0.708787
-0.056883 -0.203951 0.706422
-0.048167 -0.205118 0.702254
-0.040287 -0.208180 0.700986
-0.312785 -0.195334 0.702751
-0.307786 -0.194664 0.705042
-0.075085 -0.192572 0.708747
-0.066869 -0.194132 0.706191
-0.057752 -0.194839 0.702500
-0.051292 -0.197598 0.700575
-0.313425 -0.185338 0.706531
-0.308752 -0.184607 0.707546
-0.093803 -0.181054 0.709015
-0.086338 -0.183531 0.707702
-0.077041 -0.184060 0.705757
-0.067536 -0.184833 0.703149
-0.060019 -0.187696 0.700879
-0.312423 -0.169967 0.706666
-0.308553 -0.173733 0.705578
-0.095881 -0.173940 0.708122
-0.087205 -0.174408 0.704568
-0.077596 -0.174214 0.701744
-0.069469 -0.177500 0.701096
-0.312385 -0.164207 0.708321
-0.308755 -0.164265 0.708916
-0.102468 -0.163072 0.709494
-0.096611 -0.164234 0.706976
-0.086842 -0.164325 0.702778
-0.079571 -0.165940 0.700817
-0.312317 -0.150907 0.709040
-0.308210 -0.154470 0.707355
-0.103386 -0.154717 0.708636
-0.096951 -0.154194 0.705211
-0.089305 -0.154929 0.701398
-0.309248 -0.145205 0.707634
-0.105410 -0.143357 0.708389
-0.097539 -0.144326 0.704431
-0.090698 -0.144607 0.700892
-0.310284 -0.129995 0.708352
-0.113198 -0.133105 0.709555
-0.106845 -0.134199 0.706083
-0.097581 -0.134885 0.701738
-0.091396 -0.138423 0.700408
-0.308773 -0.126194 0.706836
-0.114109 -0.123972 0.708453
-0.106673 -0.124323 0.704800
-0.099989 -0.124062 0.700908
-0.307715 -0.112717 0.704529
-0.113963 -0.114700 0.708981
-0.106801 -0.114353 0.705694
-0.099363 -0.114257 0.701245
-0.312441 -0.106489 0.709321
-0.310276 -0.106540 0.709654
-0.113234 -0.107136 0.709779
-0.106855 -0.104224 0.706153
-0.099789 -0.104709 0.701263
-0.309301 -0.095438 0.708743
-0.106713 -0.094315 0.706024
-0.100687 -0.095234 0.701074
-0.106193 -0.084401 0.705971
-0.099618 -0.082740 0.701322
-0.105296 -0.075266 0.707693
-0.097930 -0.073556 0.703203
-0.091792 -0.070941 0.700528
-0.103069 -0.067799 0.709430
-0.096723 -0.063977 0.706481
-0.088881 -0.063357 0.701647
-0.094770 -0.054893 0.708226
-0.087089 -0.054662 0.703975
-0.079190 -0.052447 0.701407
-0.093329 -0.046608 0.709321
-0.087365 -0.044579 0.706666
-0.077815 -0.043613 0.702371
-0.071265 -0.041282 0.700621
-0.084960 -0.036576 0.708175
-0.076761 -0.034659 0.706377
-0.068763 -0.033247 0.702720
-0.072168 -0.027940 0.709508
-0.065585 -0.025428 0.706202
-0.058288 -0.022622 0.702745
-0.063496 -0.019272 0.709446
-0.056544 -0.014967 0.706141
-0.047950 -0.012761 0.702508
-0.053599 -0.008860 0.708436
-0.046230 -0.005804 0.707195
-0.038734 -0.002908 0.703196
-0.035463 0.004754 0.707010
-0.027609 0.006462 0.702905
-0.019134 0.009617 0.701196
-0.032833 0.010756 0.708508
-0.025866 0.012661 0.707290
-0.016620 0.014460 0.705987
-0.008799 0.017319 0.703962
-0.005280 0.021190 0.704662
0.001985 0.025323 0.704985
0.010889 0.029453 0.700356
-0.293506 -0.275595 0.710748
-0.288213 -0.273721 0.713707
-0.293395 -0.263152 0.712131
-0.289452 -0.264925 0.716543
-0.296149 -0.254191 0.714730
-0.290946 -0.258255 0.719013
-0.313712 -0.240703 0.711013
-0.306001 -0.242336 0.710760
-0.297201 -0.244343 0.714638
-0.290703 -0.242255 0.718989
-0.024135 -0.241401 0.717495
-0.021553 -0.241395 0.717130
-0.314226 -0.234034 0.712057
-0.306650 -0.234240 0.711662
-0.296514 -0.234172 0.713901
-0.290597 -0.234464 0.718018
-0.032132 -0.231949 0.718621
-0.027297 -0.234865 0.717323
-0.021544 -0.238954 0.716817
-0.313890 -0.227344 0.711397
-0.306069 -0.224846 0.710968
-0.298139 -0.224558 0.715817
-0.291975 -0.229034 0.718660
-0.062651 -0.221730 0.719644
-0.057014 -0.222169 0.717215
-0.047349 -0.220898 0.714634
-0.037771 -0.222778 0.713075
-0.029142 -0.227001 0.712276
-0.314401 -0.211800 0.710766
-0.305373 -0.214249 0.711879
-0.298643 -0.214049 0.716042
-0.084913 -0.210343 0.719584
-0.076694 -0.211288 0.719436
-0.066506 -0.213506 0.717676
-0.057630 -0.214886 0.713702
-0.048572 -0.217857 0.710835
-0.302679 -0.204694 0.712886
-0.299554 -0.204310 0.717391
-0.103697 -0.200679 0.719810
-0.096888 -0.201368 0.718980
-0.086585 -0.204480 0.717748
-0.077048 -0.204295 0.715080
-0.067869 -0.205255 0.712881
-0.060174 -0.208396 0.711140
-0.303403 -0.193473 0.711464
-0.300059 -0.194352 0.717042
-0.105527 -0.193683 0.718887
-0.097085 -0.194292 0.716849
-0.087236 -0.194491 0.714054
-0.078385 -0.195841 0.711495
-0.071116 -0.198672 0.710539
-0.304410 -0.183836 0.712162
-0.300821 -0.184926 0.717076
-0.113529 -0.182587 0.718965
-0.107340 -0.184350 0.716705
-0.097691 -0.184969 0.712720
-0.089902 -0.187118 0.711004
-0.315916 -0.170077 0.711944
-0.304764 -0.174920 0.712944
-0.301010 -0.174418 0.717879
-0.122413 -0.170726 0.719566
-0.116199 -0.173880 0.717621
-0.106859 -0.174225 0.713490
-0.100553 -0.175449 0.710843
-0.314301 -0.167101 0.711388
-0.305661 -0.164639 0.712758
-0.301052 -0.164479 0.718094
-0.122996 -0.163667 0.719121
-0.116578 -0.164365 0.715809
-0.107212 -0.164410 0.711726
-0.101137 -0.168473 0.710070
-0.314425 -0.150786 0.711195
-0.304914 -0.154147 0.713821
-0.301232 -0.154682 0.717712
-0.124974 -0.154163 0.718602
-0.116819 -0.154263 0.714588
-0.108913 -0.154190 0.711358
-0.313670 -0.145856 0.712598
-0.307521 -0.144963 0.716086
-0.301729 -0.148471 0.717734
-0.125160 -0.144485 0.718422
-0.117362 -0.144329 0.714496
-0.109623 -0.145428 0.710998
-0.312899 -0.134763 0.714837
-0.309239 -0.134714 0.716952
-0.126346 -0.134274 0.717526
-0.118018 -0.134532 0.712898
-0.111649 -0.138533 0.710726
-0.313168 -0.121275 0.715471
-0.309283 -0.123910 0.716740
-0.133565 -0.125038 0.719666
-0.126985 -0.124326 0.715572
-0.119006 -0.124408 0.710941
-0.312802 -0.118256 0.714100
-0.307758 -0.114020 0.716128
-0.125751 -0.114742 0.716344
-0.118810 -0.113890 0.711844
-0.314616 -0.103787 0.713229
-0.307943 -0.104147 0.715575
-0.125047 -0.104264 0.717859
-0.117685 -0.103967 0.713074
-0.312665 -0.098344 0.711407
-0.309307 -0.094179 0.716430
-0.125063 -0.094509 0.718239
-0.117329 -0.094338 0.713544
-0.111580 -0.092174 0.710289
-0.314121 -0.082030 0.716442
-0.309150 -0.084058 0.715870
-0.124284 -0.084037 0.718859
-0.117054 -0.084602 0.714439
-0.111378 -0.083319 0.711010
-0.313793 -0.076354 0.718046
-0.311459 -0.074598 0.718007
-0.122860 -0.075831 0.719015
-0.116721 -0.074090 0.715871
-0.109653 -0.073474 0.711588
-0.312505 -0.063652 0.714751
-0.310801 -0.063335 0.717206
-0.122439 -0.068197 0.719722
-0.116307 -0.064707 0.717639
-0.107112 -0.064130 0.712907
-0.101173 -0.059786 0.710320
-0.312807 -0.055553 0.715443
-0.309195 -0.054359 0.715785
-0.114574 -0.055574 0.718805
-0.107176 -0.054400 0.715606
-0.099542 -0.053454 0.711415
-0.313425 -0.043004 0.718072
-0.310806 -0.048708 0.717551
-0.106497 -0.044905 0.717846
-0.097869 -0.044192 0.712659
-0.091894 -0.040109 0.710133
-0.313753 -0.034166 0.718945
-0.103125 -0.036431 0.718331
-0.096533 -0.034767 0.715055
-0.087998 -0.032952 0.711785
-0.079686 -0.030163 0.710843
-0.312282 -0.023561 0.716911
-0.309754 -0.022963 0.716465
-0.093778 -0.028207 0.719266
-0.086616 -0.024944 0.717444
-0.077073 -0.024087 0.714448
-0.069466 -0.022041 0.711901
-0.075954 -0.015744 0.718766
-0.067359 -0.014268 0.714772
-0.060520 -0.011732 0.710871
-0.065003 -0.007079 0.718082
-0.056941 -0.004296 0.715373
-0.048823 -0.001707 0.713013
-0.053584 0.002050 0.719302
-0.046163 0.005130 0.716343
-0.039499 0.007039 0.712865
-0.044546 0.011254 0.719280
-0.035988 0.012568 0.715918
-0.027443 0.017051 0.715359
-0.017957 0.018867 0.713360
-0.024162 0.021665 0.718229
-0.015830 0.022813 0.716603
-0.008960 0.024068 0.715348
0.000979 0.029029 0.712344
0.001216 0.031786 0.714350
0.013941 0.032195 0.710539
-0.253855 -0.281667 0.727375
-0.250089 -0.281286 0.727565
-0.284056 -0.271306 0.722873
-0.281026 -0.271732 0.727328
-0.253728 -0.277151 0.726444
-0.250093 -0.278746 0.726198
-0.284759 -0.263729 0.722662
-0.279722 -0.263757 0.727934
-0.292673 -0.250700 0.720378
-0.286997 -0.253924 0.723407
-0.279813 -0.254929 0.728277
-0.037121 -0.249812 0.724607
-0.292546 -0.247660 0.720066
-0.286035 -0.244301 0.724940
-0.281302 -0.247321 0.728695
-0.254450 -0.245250 0.726828
-0.036615 -0.245939 0.726237
-0.029724 -0.240662 0.722646
-0.286279 -0.234140 0.724531
-0.074817 -0.230973 0.728124
-0.067352 -0.230806 0.726072
-0.056400 -0.231922 0.723650
-0.047173 -0.233461 0.725668
-0.036731 -0.235422 0.724062
-0.029311 -0.238359 0.721198
-0.293815 -0.222863 0.721793
-0.287267 -0.224474 0.725817
-0.281940 -0.226402 0.729030
-0.096313 -0.220718 0.727903
-0.087324 -0.221015 0.724987
-0.076431 -0.223247 0.725225
-0.067525 -0.224780 0.723881
-0.058069 -0.227543 0.721768
-0.049373 -0.229109 0.722588
-0.294176 -0.214261 0.723141
-0.289820 -0.214560 0.727953
-0.112236 -0.209941 0.729592
-0.104417 -0.213058 0.727253
-0.096605 -0.214284 0.724528
-0.087239 -0.215042 0.722168
-0.077208 -0.215630 0.721394
-0.069060 -0.217733 0.721287
-0.295182 -0.204381 0.723374
-0.289473 -0.203915 0.727876
-0.122920 -0.200418 0.729530
-0.116290 -0.203176 0.727209
-0.107330 -0.204227 0.722663
-0.097729 -0.206814 0.721897
-0.091424 -0.207209 0.720097
-0.294992 -0.194187 0.724027
-0.289517 -0.195085 0.728298
-0.124622 -0.193048 0.728080
-0.116790 -0.194505 0.723970
-0.109361 -0.195854 0.720820
-0.295998 -0.184205 0.724853
-0.291364 -0.185066 0.729436
-0.134719 -0.182501 0.728401
-0.126877 -0.184166 0.726171
-0.118212 -0.184645 0.722083
-0.296409 -0.174264 0.725297
-0.291801 -0.179131 0.729936
-0.133564 -0.175158 0.729016
-0.126849 -0.174453 0.723649
-0.120817 -0.176527 0.720919
-0.296684 -0.164357 0.725386
-0.143468 -0.160364 0.729290
-0.136417 -0.163541 0.727566
-0.128094 -0.164587 0.722796
-0.297283 -0.154407 0.724840
-0.145123 -0.154155 0.729060
-0.136958 -0.154198 0.725193
-0.129700 -0.154580 0.721279
-0.304051 -0.142685 0.723391
-0.300115 -0.146035 0.726190
-0.285931 -0.143203 0.726590
-0.281357 -0.142392 0.724470
-0.145317 -0.144449 0.728355
-0.136790 -0.144354 0.724664
-0.129845 -0.143917 0.720855
-0.304446 -0.134617 0.724576
-0.302022 -0.130183 0.728780
-0.145248 -0.134742 0.728437
-0.136879 -0.134398 0.724046
-0.130785 -0.135408 0.720494
-0.305386 -0.124629 0.722575
-0.300997 -0.124163 0.728282
-0.144486 -0.124579 0.728556
-0.137885 -0.124033 0.724278
-0.132011 -0.119363 0.720784
-0.304377 -0.114735 0.723778
-0.301007 -0.113765 0.728212
-0.143630 -0.114210 0.729111
-0.137002 -0.114202 0.725723
-0.130079 -0.112455 0.721084
-0.303942 -0.103878 0.722847
-0.300540 -0.104145 0.727171
-0.144332 -0.104344 0.729423
-0.137003 -0.104182 0.725419
-0.129733 -0.104158 0.721167
-0.304679 -0.094168 0.722761
-0.300839 -0.094516 0.727230
-0.143719 -0.096475 0.729288
-0.137173 -0.094370 0.725636
-0.129618 -0.093994 0.721051
-0.304950 -0.084594 0.724648
-0.301200 -0.086151 0.729253
-0.143119 -0.083979 0.729530
-0.137012 -0.084420 0.726172
-0.129249 -0.084256 0.721742
-0.313061 -0.070118 0.721398
-0.307658 -0.074579 0.724922
-0.143154 -0.076868 0.729711
-0.137091 -0.074406 0.727187
-0.127630 -0.074131 0.721923
-0.313015 -0.068515 0.721833
-0.307275 -0.064255 0.724640
-0.135185 -0.064587 0.728014
-0.127264 -0.064373 0.723460
-0.120545 -0.061535 0.720656
-0.305167 -0.054165 0.725332
-0.302022 -0.055405 0.728780
-0.133771 -0.057922 0.729089
-0.126764 -0.054418 0.726211
-0.119056 -0.053625 0.721666
-0.313457 -0.044405 0.721355
-0.308377 -0.044425 0.725445
-0.124719 -0.045393 0.728040
-0.116816 -0.044251 0.723690
-0.109980 -0.041807 0.720923
-0.313222 -0.033658 0.725546
-0.309942 -0.035662 0.727651
-0.115848 -0.035735 0.728059
-0.107869 -0.033978 0.723561
-0.099745 -0.030150 0.720893
-0.313644 -0.026301 0.726126
-0.311116 -0.024087 0.725101
-0.104065 -0.027174 0.728167
-0.096896 -0.024140 0.724042
-0.088625 -0.020373 0.721174
-0.314750 -0.014755 0.725439
-0.312007 -0.016200 0.727156
-0.094440 -0.015979 0.727969
-0.087182 -0.014352 0.723785
-0.079001 -0.012503 0.721316
-0.315635 -0.004765 0.727980
-0.084910 -0.007110 0.727987
-0.076253 -0.005416 0.725777
-0.067891 -0.002931 0.723135
-0.061296 -0.000503 0.720940
-0.318673 0.009284 0.728858
-0.065985 0.004980 0.726902
-0.057222 0.005965 0.722448
-0.049695 0.008723 0.720604
-0.316430 0.015343 0.728553
-0.063251 0.013707 0.728631
-0.055835 0.013517 0.724436
-0.047499 0.014828 0.723643
-0.037108 0.016559 0.724375
-0.030615 0.019413 0.721477
-0.313365 0.025838 0.725772
-0.311588 0.026300 0.723433
-0.033225 0.021776 0.729780
-0.027548 0.021520 0.721190
-0.014296 0.026966 0.722315
-0.007955 0.027890 0.722343
-0.312075 0.099505 0.724563
-0.311118 0.099957 0.727854
-0.314160 0.103259 0.727243
-0.310553 0.103009 0.727639
-0.276280 -0.285583 0.736522
-0.271653 -0.288155 0.738182
-0.254783 -0.282182 0.733403
-0.247372 -0.282029 0.735848
-0.276722 -0.273864 0.735526
-0.254871 -0.273761 0.735139
-0.250247 -0.272181 0.738877
-0.274654 -0.264896 0.733478
-0.269174 -0.262489 0.738072
-0.255987 -0.262486 0.737173
-0.250550 -0.262867 0.739473
-0.275041 -0.253807 0.732808
-0.269048 -0.254818 0.736458
-0.255827 -0.254851 0.735246
-0.250820 -0.255041 0.738115
-0.082267 -0.249588 0.737901
-0.080461 -0.249577 0.737870
-0.278318 -0.244289 0.735570
-0.255591 -0.244569 0.735857
-0.250985 -0.246719 0.737311
-0.092057 -0.243441 0.739306
-0.087119 -0.244457 0.737623
-0.079290 -0.242186 0.736908
-0.035779 -0.248077 0.733434
-0.282375 -0.232698 0.730155
-0.278957 -0.234619 0.734972
-0.254219 -0.234622 0.739341
-0.249996 -0.235568 0.739162
-0.103974 -0.235145 0.739204
-0.097082 -0.235319 0.737122
-0.087051 -0.235308 0.735410
-0.080615 -0.235861 0.735048
-0.043365 -0.237536 0.730404
-0.283042 -0.221328 0.731883
-0.278746 -0.224765 0.734616
-0.255174 -0.227154 0.739202
-0.122851 -0.220726 0.739853
-0.116016 -0.221272 0.738514
-0.107064 -0.221625 0.734840
-0.099620 -0.223383 0.731291
-0.284822 -0.214445 0.732740
-0.280201 -0.214576 0.737945
-0.134543 -0.211262 0.739203
-0.126485 -0.213129 0.737778
-0.117325 -0.214113 0.735047
-0.108413 -0.215398 0.731731
-0.284647 -0.204580 0.731859
-0.278886 -0.203826 0.737197
-0.142719 -0.200220 0.739775
-0.136105 -0.203855 0.737837
-0.127030 -0.204208 0.733451
-0.119515 -0.206589 0.731630
-0.285059 -0.193724 0.732299
-0.277993 -0.194216 0.737111
-0.254381 -0.191191 0.735161
-0.251191 -0.190901 0.736360
-0.144014 -0.192666 0.738621
-0.137139 -0.194581 0.736047
-0.129014 -0.195322 0.731860
-0.286970 -0.184218 0.732712
-0.277557 -0.184313 0.736753
-0.253482 -0.187477 0.731885
-0.250322 -0.187850 0.733809
-0.152954 -0.180333 0.739744
-0.146024 -0.183853 0.737981
-0.137546 -0.185442 0.732813
-0.131454 -0.187659 0.730738
-0.292126 -0.175164 0.730748
-0.286894 -0.174344 0.733420
-0.278960 -0.174693 0.737976
-0.163484 -0.170778 0.739239
-0.156512 -0.173432 0.738116
-0.147375 -0.174150 0.736247
-0.138944 -0.174378 0.732886
-0.292951 -0.165605 0.730580
-0.287284 -0.164342 0.733975
-0.278961 -0.164489 0.738620
-0.163864 -0.163535 0.739143
-0.156891 -0.164346 0.735586
-0.146755 -0.164734 0.732181
-0.139306 -0.167717 0.731058
-0.293094 -0.153517 0.731385
-0.287121 -0.154513 0.734875
-0.280733 -0.154266 0.737632
-0.264487 -0.152674 0.739994
-0.260805 -0.152033 0.739807
-0.164066 -0.154220 0.738736
-0.157178 -0.154543 0.734605
-0.149760 -0.154559 0.731074
-0.296555 -0.143813 0.733979
-0.287595 -0.144271 0.736799
-0.280931 -0.148163 0.732591
-0.264262 -0.143477 0.738863
-0.260085 -0.144292 0.739079
-0.165486 -0.144722 0.738515
-0.157110 -0.144419 0.733525
-0.150292 -0.143816 0.730704
-0.297358 -0.134409 0.735177
-0.290733 -0.134472 0.739312
-0.165334 -0.134603 0.738147
-0.156888 -0.134339 0.733335
-0.150276 -0.133707 0.730903
-0.295955 -0.124142 0.734406
-0.290122 -0.123780 0.738634
-0.165085 -0.124358 0.737792
-0.156997 -0.124381 0.734129
-0.149462 -0.124273 0.731329
-0.295710 -0.114115 0.733520
-0.289276 -0.114505 0.738671
-0.165034 -0.114426 0.737753
-0.157154 -0.114383 0.734026
-0.148429 -0.114529 0.731142
-0.295752 -0.104276 0.734192
-0.290698 -0.104754 0.738843
-0.164532 -0.104235 0.737402
-0.156964 -0.104231 0.733435
-0.149311 -0.104351 0.730756
-0.295966 -0.094181 0.734994
-0.291400 -0.096208 0.739306
-0.163847 -0.094801 0.738883
-0.157032 -0.094271 0.735692
-0.147907 -0.094036 0.732071
-0.302932 -0.080573 0.730977
-0.298080 -0.084385 0.735243
-0.163511 -0.085170 0.739078
-0.156955 -0.084229 0.736194
-0.147746 -0.084375 0.732214
-0.303413 -0.073314 0.731890
-0.299306 -0.074440 0.737387
-0.156505 -0.074750 0.737091
-0.147232 -0.073853 0.732668
-0.303321 -0.064821 0.731476
-0.299822 -0.063874 0.736966
-0.154166 -0.066849 0.738223
-0.146862 -0.064570 0.735082
-0.139798 -0.063809 0.731075
-0.302622 -0.053935 0.731381
-0.299261 -0.054284 0.736458
-0.145340 -0.055323 0.737964
-0.137537 -0.054160 0.733986
-0.130906 -0.050811 0.730998
-0.303691 -0.043983 0.731990
-0.300218 -0.044797 0.736497
-0.142652 -0.048989 0.739431
-0.136148 -0.045135 0.737222
-0.128985 -0.043467 0.731908
-0.305277 -0.033644 0.733310
-0.300381 -0.035304 0.737637
-0.133265 -0.037339 0.738299
-0.126800 -0.034549 0.735464
-0.118447 -0.032031 0.731751
-0.110048 -0.029375 0.730842
-0.312383 -0.023421 0.730806
-0.308108 -0.024502 0.735465
-0.301657 -0.028520 0.739525
-0.124567 -0.025487 0.738943
-0.117116 -0.024336 0.736523
-0.108043 -0.023679 0.733696
-0.100888 -0.020163 0.731310
-0.313368 -0.012718 0.731310
-0.309062 -0.014353 0.736072
-0.113202 -0.018891 0.739790
-0.105396 -0.015572 0.737786
-0.098479 -0.013681 0.733309
-0.313312 -0.004049 0.731645
-0.307121 -0.004436 0.735946
-0.299671 -0.004114 0.739320
-0.291007 -0.006831 0.738651
-0.095663 -0.005976 0.736382
-0.087930 -0.002847 0.733972
-0.079018 -0.000958 0.732138
-0.315281 0.005620 0.732323
-0.307352 0.005601 0.736489
-0.301109 0.003140 0.739449
-0.092107 0.001592 0.739712
-0.085828 0.002052 0.738324
-0.076235 0.004810 0.736078
-0.069435 0.007603 0.731545
-0.314476 0.015531 0.733839
-0.309366 0.015112 0.738437
-0.073393 0.011223 0.739306
-0.067963 0.013049 0.735415
-0.044941 0.019473 0.732551
-0.039642 0.019039 0.733048
-0.313592 0.025488 0.736445
-0.308718 0.025996 0.738278
-0.045640 0.023007 0.735855
-0.037372 0.024126 0.733419
-0.031016 0.024883 0.733762
-0.315060 0.035659 0.735532
-0.309490 0.035620 0.739151
-0.315643 0.045347 0.737255
-0.311615 0.042504 0.738864
-0.315396 0.055254 0.737911
-0.313702 0.098582 0.735298
-0.306513 0.100368 0.739619
-0.313903 0.107992 0.734103
-0.308535 0.104063 0.736640
-0.313975 0.111467 0.737339
-0.308210 0.114180 0.739353
-0.307159 0.153991 0.733965
-0.307472 0.162524 0.734715
-0.303159 0.244275 0.735862
-0.297799 0.245947 0.738560
-0.272408 -0.289673 0.745179
-0.268571 -0.290736 0.746666
-0.274531 -0.284804 0.742521
-0.269063 -0.284224 0.744849
-0.254199 -0.279837 0.741628
-0.249853 -0.279704 0.741274
-0.272934 -0.274955 0.742589
-0.269867 -0.276242 0.743583
-0.253607 -0.277724 0.741224
-0.246399 -0.273492 0.742101
-0.237051 -0.273056 0.746047
-0.229948 -0.273392 0.749402
-0.272452 -0.269099 0.741993
-0.268631 -0.264021 0.743438
-0.245935 -0.264118 0.743192
-0.237456 -0.264869 0.748349
-0.230872 -0.266955 0.749548
-0.273083 -0.250854 0.743067
-0.269376 -0.252437 0.744179
-0.247203 -0.255267 0.747063
-0.240033 -0.254422 0.749487
-0.094833 -0.249835 0.742205
-0.091271 -0.250005 0.742711
-0.273552 -0.244179 0.742404
-0.267671 -0.244380 0.743760
-0.257144 -0.241423 0.740969
-0.246773 -0.243693 0.742405
-0.239909 -0.245125 0.747033
-0.113226 -0.239953 0.746564
-0.094659 -0.246427 0.741772
-0.084127 -0.247543 0.740171
-0.080749 -0.248058 0.740509
-0.274068 -0.234367 0.744354
-0.266699 -0.232828 0.747507
-0.257698 -0.234207 0.741837
-0.245993 -0.233621 0.743733
-0.240495 -0.236326 0.748291
-0.135863 -0.230609 0.748462
-0.127417 -0.232376 0.747087
-0.112192 -0.238669 0.745085
-0.107405 -0.237947 0.741668
-0.101870 -0.238445 0.740618
-0.274965 -0.224019 0.744162
-0.267473 -0.224118 0.746899
-0.256705 -0.223728 0.742266
-0.248500 -0.224208 0.744983
-0.146983 -0.222556 0.748030
-0.137220 -0.224111 0.745840
-0.127436 -0.224784 0.743152
-0.120064 -0.224160 0.741233
-0.275435 -0.214095 0.743363
-0.267211 -0.213921 0.745472
-0.256732 -0.214382 0.742178
-0.247974 -0.214137 0.745773
-0.153609 -0.213399 0.747693
-0.147253 -0.214135 0.745765
-0.137654 -0.215461 0.743811
-0.128601 -0.217544 0.740741
-0.273782 -0.204453 0.742024
-0.267190 -0.204395 0.744883
-0.257150 -0.204391 0.742808
-0.248346 -0.204406 0.745893
-0.155482 -0.203832 0.748064
-0.147324 -0.204523 0.744033
-0.140924 -0.206156 0.740897
-0.272776 -0.194958 0.742224
-0.269113 -0.195366 0.746895
-0.256577 -0.196642 0.744079
-0.247275 -0.194418 0.746172
-0.165913 -0.191768 0.748019
-0.156846 -0.194168 0.744825
-0.148712 -0.195138 0.742051
-0.272878 -0.183346 0.743362
-0.268986 -0.184779 0.743996
-0.256023 -0.184495 0.746262
-0.247278 -0.184565 0.746462
-0.241136 -0.185845 0.749833
-0.174997 -0.182589 0.748815
-0.167171 -0.184212 0.746423
-0.157191 -0.184345 0.742122
-0.151045 -0.186604 0.740724
-0.274492 -0.174016 0.742201
-0.267549 -0.174091 0.745068
-0.256251 -0.174054 0.744689
-0.248279 -0.174229 0.747634
-0.175880 -0.174566 0.747924
-0.167371 -0.174507 0.743204
-0.158502 -0.177717 0.740893
-0.274406 -0.163846 0.741085
-0.267184 -0.164313 0.742658
-0.256729 -0.164314 0.742591
-0.248147 -0.164088 0.746824
-0.175011 -0.163989 0.748188
-0.168696 -0.164593 0.743180
-0.276510 -0.154245 0.742634
-0.267708 -0.154786 0.741299
-0.256330 -0.154662 0.742347
-0.248130 -0.154401 0.747311
-0.183540 -0.152301 0.749023
-0.176812 -0.154143 0.746447
-0.168999 -0.154388 0.742248
-0.283866 -0.141271 0.741295
-0.278316 -0.143829 0.747120
-0.268163 -0.144148 0.742655
-0.255576 -0.144067 0.742001
-0.248963 -0.144509 0.746922
-0.184850 -0.143857 0.749044
-0.177164 -0.144422 0.745513
-0.169523 -0.143845 0.741075
-0.285703 -0.134337 0.741893
-0.277935 -0.134054 0.747134
-0.267084 -0.134423 0.745109
-0.256961 -0.134383 0.742965
-0.249856 -0.134594 0.747272
-0.185221 -0.134389 0.748912
-0.177055 -0.134410 0.744813
-0.170138 -0.134199 0.741126
-0.285271 -0.124533 0.741794
-0.277341 -0.124185 0.745445
-0.266747 -0.124062 0.745555
-0.256805 -0.124460 0.745264
-0.250050 -0.124965 0.748189
-0.184629 -0.124619 0.748843
-0.176651 -0.124515 0.744802
-0.170103 -0.124515 0.740973
-0.284736 -0.114116 0.742293
-0.277689 -0.114698 0.746744
-0.267503 -0.118051 0.747415
-0.256519 -0.118068 0.748740
-0.251062 -0.118912 0.749388
-0.183844 -0.115384 0.749154
-0.176731 -0.114288 0.745736
-0.170021 -0.114264 0.741405
-0.286080 -0.104135 0.742218
-0.279234 -0.104474 0.746985
-0.182477 -0.106442 0.749668
-0.176597 -0.104501 0.746724
-0.169602 -0.104308 0.741630
-0.286642 -0.094146 0.744310
-0.281120 -0.095872 0.748179
-0.176245 -0.093961 0.747085
-0.168764 -0.094256 0.742176
-0.293410 -0.083552 0.741097
-0.288652 -0.084426 0.745042
-0.175476 -0.084538 0.746932
-0.168356 -0.084077 0.742238
-0.294179 -0.073882 0.742235
-0.289014 -0.074684 0.746969
-0.173280 -0.076556 0.748614
-0.166663 -0.074439 0.744342
-0.160772 -0.072029 0.741071
-0.294515 -0.064684 0.742962
-0.289436 -0.064878 0.748177
-0.165784 -0.064571 0.747362
-0.157807 -0.063732 0.742846
-0.151286 -0.060511 0.740431
-0.294141 -0.054498 0.743619
-0.290612 -0.054256 0.748186
-0.163542 -0.056222 0.748572
-0.156992 -0.054242 0.745226
-0.149234 -0.053028 0.741521
-0.295153 -0.044092 0.742879
-0.289828 -0.043571 0.748597
-0.256736 -0.043101 0.749350
-0.155126 -0.046460 0.748033
-0.147127 -0.044411 0.744857
-0.139883 -0.042009 0.741547
-0.295818 -0.034006 0.743941
-0.289952 -0.034909 0.748917
-0.145455 -0.036833 0.747634
-0.137397 -0.033932 0.743826
-0.130484 -0.030186 0.740993
-0.303856 -0.022759 0.742074
-0.297200 -0.024642 0.746113
-0.288485 -0.024084 0.749110
-0.280099 -0.020360 0.749521
-0.135322 -0.025796 0.747330
-0.128550 -0.023579 0.742709
-0.120533 -0.020113 0.740415
-0.304365 -0.015549 0.742118
-0.297160 -0.014844 0.745104
-0.287024 -0.015498 0.746209
-0.280010 -0.014482 0.748631
-0.132432 -0.015462 0.748762
-0.126630 -0.014416 0.745829
-0.117443 -0.014490 0.742949
-0.109757 -0.013231 0.741419
-0.303104 -0.009256 0.740119
-0.296905 -0.004379 0.741248
-0.291259 -0.002025 0.740650
-0.124976 -0.005862 0.746969
-0.117290 -0.006945 0.747300
-0.106776 -0.006225 0.745592
-0.099180 -0.002835 0.743039
-0.303158 0.008436 0.741233
-0.296689 0.006181 0.744724
-0.289143 0.004435 0.747652
-0.095493 0.003368 0.745902
-0.087591 0.006285 0.744445
-0.078557 0.008760 0.741435
-0.304553 0.015693 0.740946
-0.296816 0.015447 0.745005
-0.291175 0.016468 0.748896
-0.088409 0.011374 0.749208
-0.074328 0.014489 0.745314
-0.070725 0.015515 0.742899
-0.303961 0.025069 0.740874
-0.296655 0.025423 0.744664
-0.291091 0.024933 0.749187
-0.305173 0.036406 0.741622
-0.298403 0.035339 0.746263
-0.313430 0.048616 0.740306
-0.307051 0.045879 0.742905
-0.298388 0.046072 0.747948
-0.313993 0.060665 0.740212
-0.307177 0.055518 0.743648
-0.298250 0.055828 0.748506
-0.316406 0.066027 0.744109
-0.307057 0.065192 0.745643
-0.299407 0.065811 0.749039
-0.315837 0.075423 0.749294
-0.307316 0.075405 0.748914
-0.298783 0.075406 0.748929
-0.315519 0.086319 0.747240
-0.307015 0.085535 0.746850
-0.298549 0.085599 0.748200
-0.314441 0.094688 0.742065
-0.307068 0.095761 0.743811
-0.298988 0.095501 0.747395
-0.312426 0.107028 0.741264
-0.305242 0.106560 0.742772
-0.300362 0.105598 0.746790
-0.314449 0.117375 0.743148
-0.306496 0.115594 0.743462
-0.300102 0.114855 0.747661
-0.314250 0.125659 0.744605
-0.307280 0.125645 0.747269
-0.300737 0.122612 0.748933
-0.315627 0.135317 0.746171
-0.308774 0.133575 0.748323
-0.306764 0.158324 0.746502
-0.300926 0.159736 0.749708
-0.312708 0.167871 0.743367
-0.306129 0.166454 0.745600
-0.298322 0.165508 0.748523
-0.312858 0.177687 0.744893
-0.306970 0.175837 0.746303
-0.300187 0.174456 0.748842
-0.312923 0.182182 0.745129
-0.306705 0.185491 0.746263
-0.305872 0.195232 0.744387
-0.300186 0.198069 0.748710
-0.307372 0.205932 0.747983
-0.299146 0.202096 0.748315
-0.276587 0.210298 0.744991
-0.306544 0.214884 0.747665
-0.299416 0.214985 0.747182
-0.279471 0.212557 0.748198
-0.305615 0.223793 0.745036
-0.298101 0.237758 0.747728
-0.302833 0.242337 0.740931
-0.295054 0.244050 0.743305
-0.290983 0.244871 0.747834
-0.292254 0.250940 0.743180
-0.272765 -0.291066 0.754575
-0.271425 -0.291540 0.751869
-0.228749 -0.290834 0.758978
-0.273124 -0.288905 0.751603
-0.271848 -0.289232 0.750332
-0.225393 -0.285012 0.756437
-0.220905 -0.280437 0.757938
-0.272329 -0.275666 0.751660
-0.271244 -0.276078 0.753505
-0.225350 -0.273949 0.751827
-0.220069 -0.275767 0.756136
-0.234898 -0.260607 0.750122
-0.226501 -0.263591 0.751916
-0.221772 -0.264569 0.756689
-0.077284 -0.262421 0.758217
-0.272496 -0.254931 0.755517
-0.270498 -0.255471 0.751676
-0.245612 -0.253217 0.750076
-0.235638 -0.254383 0.751502
-0.227655 -0.254928 0.755524
-0.124729 -0.251022 0.754862
-0.121288 -0.250264 0.752581
-0.077020 -0.258585 0.757210
-0.235628 -0.243723 0.753753
-0.230243 -0.244977 0.758074
-0.166743 -0.241041 0.755372
-0.158257 -0.239847 0.756454
-0.148145 -0.240928 0.758748
-0.134887 -0.242700 0.755854
-0.127782 -0.244077 0.753201
-0.118998 -0.243222 0.751921
-0.272097 -0.236901 0.751020
-0.269352 -0.231123 0.750529
-0.242559 -0.230000 0.750458
-0.236685 -0.233950 0.755087
-0.230658 -0.234429 0.759035
-0.164725 -0.235512 0.755994
-0.157650 -0.232938 0.752780
-0.146277 -0.234073 0.754642
-0.138151 -0.234702 0.752215
-0.129503 -0.238070 0.750148
-0.243758 -0.224124 0.751038
-0.237398 -0.224690 0.755915
-0.231002 -0.223578 0.759134
-0.164863 -0.224147 0.757359
-0.157230 -0.224385 0.752716
-0.148427 -0.227665 0.751680
-0.243384 -0.214777 0.751117
-0.237266 -0.214450 0.754142
-0.229793 -0.213929 0.757441
-0.175955 -0.212090 0.758187
-0.166764 -0.212764 0.754786
-0.158449 -0.214384 0.752032
-0.269614 -0.202124 0.754027
-0.243295 -0.205037 0.751113
-0.237293 -0.204056 0.753700
-0.230079 -0.204696 0.757464
-0.176311 -0.207731 0.757739
-0.166213 -0.205093 0.753519
-0.159713 -0.206009 0.750990
-0.269057 -0.192942 0.753701
-0.242877 -0.194498 0.751020
-0.237316 -0.194477 0.754836
-0.230428 -0.193005 0.759013
-0.193344 -0.190328 0.758776
-0.186169 -0.193519 0.756960
-0.176993 -0.194215 0.753501
-0.168010 -0.196022 0.751300
-0.161918 -0.198867 0.750582
-0.265077 -0.186301 0.755630
-0.259643 -0.184238 0.751659
-0.243509 -0.180968 0.750370
-0.236916 -0.184295 0.752989
-0.228481 -0.183882 0.757413
-0.194811 -0.183927 0.755832
-0.187233 -0.184133 0.753015
-0.178663 -0.185608 0.751181
-0.243927 -0.174491 0.750906
-0.237089 -0.174110 0.754176
-0.228652 -0.175468 0.757771
-0.195099 -0.174900 0.758593
-0.187280 -0.174212 0.754400
-0.180585 -0.174132 0.751002
-0.243380 -0.164112 0.750838
-0.237173 -0.164356 0.755425
-0.231272 -0.165217 0.759261
-0.195509 -0.164243 0.758358
-0.187009 -0.164581 0.755099
-0.179183 -0.164980 0.751655
-0.243288 -0.153640 0.751202
-0.237193 -0.154510 0.755643
-0.231886 -0.154231 0.759536
-0.196426 -0.154129 0.756998
-0.187583 -0.154990 0.752430
-0.181492 -0.158539 0.750645
-0.279067 -0.146983 0.750497
-0.243936 -0.144032 0.751833
-0.237401 -0.144619 0.756776
-0.231980 -0.147488 0.759843
-0.202339 -0.143074 0.759404
-0.196966 -0.144317 0.756053
-0.189825 -0.144946 0.751417
-0.273744 -0.135285 0.750504
-0.244896 -0.133987 0.753398
-0.237790 -0.134433 0.758402
-0.203323 -0.133748 0.759121
-0.197384 -0.134444 0.755542
-0.190005 -0.134800 0.751206
-0.245534 -0.124020 0.753035
-0.237650 -0.124281 0.757937
-0.202518 -0.126136 0.759193
-0.197544 -0.124519 0.756251
-0.189423 -0.124259 0.751199
-0.274040 -0.110734 0.751709
-0.267123 -0.113708 0.753470
-0.256964 -0.113337 0.753489
-0.246813 -0.114239 0.754734
-0.238816 -0.115087 0.758462
-0.203637 -0.113454 0.759138
-0.197348 -0.114225 0.755686
-0.188744 -0.113585 0.751345
-0.274272 -0.104164 0.754628
-0.267184 -0.104415 0.758123
-0.256430 -0.104707 0.753911
-0.246970 -0.104400 0.756497
-0.240925 -0.102657 0.759532
-0.203524 -0.104680 0.759030
-0.197282 -0.104507 0.755337
-0.187549 -0.104120 0.751716
-0.181263 -0.101332 0.750707
-0.278007 -0.094561 0.755055
-0.263431 -0.093031 0.758405
-0.256400 -0.094101 0.754562
-0.246842 -0.094108 0.755612
-0.239677 -0.094139 0.758749
-0.195992 -0.094352 0.757056
-0.187133 -0.094522 0.752896
-0.181322 -0.095126 0.750948
-0.283593 -0.083996 0.751630
-0.280368 -0.084493 0.756850
-0.263884 -0.086554 0.757286
-0.256866 -0.083910 0.755406
-0.247173 -0.084069 0.757112
-0.240174 -0.085778 0.759144
-0.195720 -0.084212 0.758393
-0.186916 -0.084039 0.754375
-0.180561 -0.084639 0.751219
-0.284160 -0.073905 0.753833
-0.280850 -0.075541 0.758141
-0.263638 -0.072876 0.758859
-0.256849 -0.075018 0.758615
-0.248024 -0.077427 0.759023
-0.195609 -0.074780 0.758768
-0.187050 -0.074076 0.755801
-0.177671 -0.073913 0.752473
-0.171583 -0.071074 0.750083
-0.285174 -0.064134 0.755038
-0.281335 -0.065775 0.759448
-0.255243 -0.061838 0.758916
-0.250102 -0.061308 0.759257
-0.193701 -0.068449 0.759365
-0.186321 -0.065125 0.757848
-0.177013 -0.064175 0.754588
-0.170726 -0.064176 0.751369
-0.286382 -0.054314 0.754848
-0.264790 -0.053229 0.758298
-0.256343 -0.054148 0.754421
-0.249255 -0.054126 0.757600
-0.183004 -0.058974 0.759453
-0.176415 -0.055250 0.757409
-0.168108 -0.053640 0.752443
-0.161972 -0.049745 0.750832
-0.285218 -0.044864 0.754244
-0.280438 -0.043029 0.758530
-0.265180 -0.044782 0.757631
-0.256204 -0.044645 0.753900
-0.249656 -0.044922 0.757527
-0.174042 -0.047914 0.758429
-0.166517 -0.044703 0.755661
-0.157996 -0.042776 0.751947
-0.285189 -0.034350 0.752513
-0.279567 -0.034149 0.756881
-0.263948 -0.037936 0.759245
-0.256845 -0.037312 0.757942
-0.250501 -0.038286 0.759181
-0.164086 -0.035567 0.758344
-0.156944 -0.034813 0.755310
-0.147921 -0.033048 0.752572
-0.141181 -0.030789 0.750817
-0.284234 -0.026263 0.751335
-0.277175 -0.024455 0.755024
-0.260492 -0.028071 0.759984
-0.158180 -0.028191 0.759043
-0.145304 -0.024640 0.756753
-0.139098 -0.023577 0.752194
-0.275902 -0.014598 0.754594
-0.143107 -0.016701 0.758870
-0.137078 -0.015447 0.754282
-0.130816 -0.009720 0.752738
-0.283401 -0.002822 0.756837
-0.279516 -0.006646 0.755158
-0.133658 -0.006149 0.757228
-0.129081 -0.005041 0.755744
-0.116582 -0.002125 0.754388
-0.107627 -0.001045 0.752626
-0.286419 0.006539 0.754690
-0.262654 0.010287 0.759078
-0.261417 0.010287 0.759078
-0.114892 0.001633 0.758907
-0.106021 0.003630 0.757125
-0.097810 0.007601 0.753805
-0.286531 0.015736 0.753626
-0.262730 0.012145 0.759297
-0.261492 0.012145 0.759297
-0.096531 0.011759 0.756500
-0.090989 0.011391 0.750364
-0.075272 0.018153 0.752042
-0.286903 0.025591 0.754603
-0.293738 0.036523 0.751423
-0.287756 0.035359 0.755996
-0.293251 0.045335 0.751405
-0.287420 0.045464 0.755654
-0.293119 0.055619 0.751159
-0.287641 0.055787 0.755143
-0.294362 0.065513 0.750875
-0.287106 0.065869 0.754976
-0.317374 0.075158 0.750610
-0.293575 0.075636 0.751209
-0.287403 0.075773 0.756002
-0.319935 0.085258 0.750515
-0.293562 0.085420 0.751175
-0.288183 0.085660 0.756081
-0.294132 0.096088 0.752764
-0.289468 0.094678 0.757196
-0.295665 0.105842 0.754409
-0.291155 0.102414 0.759251
-0.295198 0.115871 0.752982
-0.290450 0.116188 0.758132
-0.303187 0.129219 0.750470
-0.296593 0.125873 0.753662
-0.290091 0.125718 0.758092
-0.314191 0.139175 0.750770
-0.305378 0.136732 0.751847
-0.297222 0.135606 0.755830
-0.290534 0.134853 0.758999
-0.314621 0.145552 0.752896
-0.306756 0.145683 0.752891
-0.296805 0.145557 0.756281
-0.291424 0.145829 0.759953
-0.315052 0.152862 0.753237
-0.306850 0.154078 0.751374
-0.296656 0.155761 0.754840
-0.291266 0.157501 0.759541
-0.295326 0.166052 0.752683
-0.290994 0.164261 0.756700
-0.295493 0.176136 0.753282
-0.290435 0.174127 0.758227
-0.303132 0.188663 0.750634
-0.298088 0.185446 0.754964
-0.303048 0.191666 0.750426
-0.298138 0.195499 0.755185
-0.305080 0.206706 0.751522
-0.297121 0.206211 0.754460
-0.306049 0.217331 0.750725
-0.295834 0.214582 0.752991
-0.287830 0.216728 0.755203
-0.279223 0.214682 0.752925
-0.313380 0.223227 0.751757
-0.306211 0.226884 0.751222
-0.296728 0.227556 0.753867
-0.289349 0.226728 0.758415
-0.306120 0.233086 0.751964
-0.295838 0.235193 0.753412
-0.290257 0.236032 0.757502
-0.293050 0.242914 0.751431
-0.289583 0.245131 0.754251
-0.290482 0.251486 0.756970
-0.312426 0.268504 0.756860
-0.306684 0.267149 0.756688
-0.300960 0.268103 0.757475
-0.313485 0.272773 0.757717
-0.306372 0.273704 0.757899
-0.306626 0.281308 0.757154
-0.223574 -0.299439 0.767090
-0.220164 -0.299903 0.768277
-0.233173 -0.294863 0.761721
-0.226590 -0.295255 0.764768
-0.220397 -0.295445 0.768153
-0.223877 -0.286247 0.761491
-0.220659 -0.287847 0.767832
-0.222399 -0.271284 0.765200
-0.219813 -0.272499 0.766181
-0.222227 -0.260895 0.760348
-0.220144 -0.264118 0.765935
-0.076084 -0.265787 0.760172
-0.223615 -0.252829 0.763066
-0.220465 -0.255091 0.767300
-0.136830 -0.251009 0.762921
-0.225595 -0.244512 0.763607
-0.221034 -0.242885 0.768357
-0.164755 -0.243622 0.763238
-0.157613 -0.244822 0.764282
-0.147436 -0.242533 0.761015
-0.137019 -0.247289 0.761667
-0.225503 -0.234258 0.762392
-0.219170 -0.233801 0.766993
-0.174491 -0.232142 0.767912
-0.168359 -0.234589 0.762915
-0.157345 -0.236326 0.760983
-0.151780 -0.233866 0.761046
-0.226189 -0.224342 0.762007
-0.218778 -0.225057 0.766853
-0.184110 -0.222870 0.768263
-0.177346 -0.223904 0.764838
-0.169678 -0.226150 0.761898
-0.224694 -0.214409 0.763617
-0.221190 -0.217085 0.769667
-0.185146 -0.214635 0.766645
-0.178419 -0.216333 0.762588
-0.225193 -0.204319 0.765085
-0.221201 -0.200448 0.768836
-0.205694 -0.200511 0.768818
-0.197789 -0.202241 0.767762
-0.185102 -0.205292 0.763868
-0.178857 -0.206908 0.761277
-0.226137 -0.195050 0.763196
-0.217485 -0.194010 0.767922
-0.207148 -0.194068 0.767770
-0.197217 -0.194817 0.763766
-0.189699 -0.197697 0.761778
-0.224064 -0.185384 0.761620
-0.217628 -0.184445 0.765328
-0.207508 -0.184408 0.765877
-0.200641 -0.184069 0.762029
-0.224846 -0.172874 0.761941
-0.217187 -0.174584 0.765492
-0.207150 -0.174449 0.764106
-0.200033 -0.174293 0.760710
-0.226517 -0.164236 0.763553
-0.217290 -0.164390 0.767827
-0.206929 -0.164467 0.764879
-0.200294 -0.165014 0.760598
-0.226898 -0.154433 0.763588
-0.217460 -0.153987 0.767561
-0.207228 -0.154366 0.764549
-0.200493 -0.158681 0.760109
-0.232889 -0.141649 0.760387
-0.226794 -0.144417 0.763231
-0.217076 -0.144356 0.766202
-0.207350 -0.144444 0.762885
-0.201137 -0.148177 0.760203
-0.232888 -0.134559 0.760212
-0.226903 -0.134286 0.761793
-0.217267 -0.134710 0.764935
-0.208020 -0.134384 0.762734
-0.232293 -0.123586 0.760418
-0.226639 -0.124257 0.762235
-0.217067 -0.124517 0.765848
-0.207391 -0.124275 0.762793
-0.234546 -0.113089 0.761113
-0.226879 -0.114476 0.764021
-0.217194 -0.114029 0.765835
-0.207972 -0.114824 0.762438
-0.268143 -0.106139 0.760621
-0.236560 -0.104735 0.761564
-0.227318 -0.104330 0.765049
-0.216883 -0.104021 0.766011
-0.208020 -0.103915 0.762512
-0.275072 -0.093519 0.762091
-0.267896 -0.097006 0.762453
-0.234782 -0.094293 0.761753
-0.227380 -0.094445 0.766418
-0.216626 -0.095448 0.768820
-0.207154 -0.094528 0.765110
-0.201270 -0.094379 0.760706
-0.275761 -0.084592 0.762613
-0.268310 -0.084150 0.762398
-0.235574 -0.083979 0.762252
-0.229146 -0.084552 0.767620
-0.213921 -0.083862 0.769511
-0.207345 -0.084082 0.765595
-0.200756 -0.084514 0.761103
-0.276651 -0.074510 0.762817
-0.267943 -0.075037 0.762795
-0.257512 -0.071425 0.760323
-0.246382 -0.073140 0.761728
-0.236935 -0.074248 0.765106
-0.230884 -0.075953 0.768557
-0.212269 -0.076010 0.769136
-0.206957 -0.074056 0.766052
-0.200284 -0.073862 0.761193
-0.282923 -0.060904 0.760390
-0.277067 -0.064084 0.763404
-0.267264 -0.064796 0.763182
-0.257863 -0.066038 0.760586
-0.246599 -0.065300 0.762170
-0.237805 -0.064066 0.766944
-0.204520 -0.065623 0.767437
-0.197218 -0.063857 0.763510
-0.189295 -0.061273 0.761122
-0.283091 -0.054745 0.760843
-0.277902 -0.054588 0.763416
-0.268928 -0.055491 0.762581
-0.261143 -0.059023 0.760078
-0.244541 -0.055060 0.761527
-0.238489 -0.054128 0.766283
-0.194980 -0.056133 0.768314
-0.187307 -0.054416 0.764730
-0.180050 -0.051656 0.760984
-0.282899 -0.049135 0.760328
-0.276006 -0.045293 0.761505
-0.270127 -0.044603 0.761285
-0.244723 -0.044003 0.762851
-0.238653 -0.044038 0.767096
-0.184909 -0.045790 0.767468
-0.177273 -0.043990 0.763529
-0.171531 -0.042962 0.760684
-0.274481 -0.034919 0.760868
-0.267649 -0.033711 0.761562
-0.256586 -0.032295 0.760903
-0.247023 -0.033898 0.765326
-0.239769 -0.036344 0.768750
-0.174876 -0.034560 0.767676
-0.168789 -0.033541 0.763001
-0.273254 -0.025462 0.760624
-0.267769 -0.023792 0.761719
-0.256641 -0.023548 0.761931
-0.248887 -0.024215 0.767523
-0.174194 -0.026352 0.768960
-0.166829 -0.024102 0.765394
-0.157225 -0.023012 0.764866
-0.149245 -0.020824 0.762863
-0.273442 -0.011766 0.763228
-0.267406 -0.014251 0.763855
-0.256754 -0.014080 0.763348
-0.250190 -0.013168 0.767309
-0.166100 -0.016978 0.767641
-0.161307 -0.016486 0.768047
-0.146582 -0.014954 0.765205
-0.141327 -0.012020 0.762608
-0.282857 -0.000840 0.760213
-0.277060 -0.003450 0.765908
-0.266125 -0.004001 0.768089
-0.256848 -0.003756 0.764310
-0.250448 -0.004419 0.766270
-0.134326 -0.001837 0.763289
-0.122946 0.000399 0.762858
-0.120892 0.000398 0.761671
-0.283184 0.004710 0.762503
-0.277563 0.006317 0.767530
-0.267566 0.005801 0.767302
-0.256443 0.006153 0.763621
-0.250981 0.004955 0.768420
-0.123665 0.001651 0.767325
-0.116724 0.004483 0.763926
-0.107045 0.005627 0.763780
-0.282907 0.015876 0.760347
-0.277690 0.015909 0.766094
-0.266614 0.016062 0.765778
-0.257812 0.015328 0.765592
-0.099767 0.012799 0.761390
-0.282874 0.026647 0.761371
-0.278710 0.025668 0.766524
-0.265355 0.022024 0.769605
-0.258316 0.021714 0.769730
-0.282786 0.035754 0.761692
-0.279082 0.035934 0.766288
-0.282827 0.045685 0.761804
-0.279201 0.045764 0.766187
-0.283251 0.055708 0.761913
-0.279554 0.055924 0.766630
-0.282516 0.064783 0.761351
-0.280195 0.065438 0.766404
-0.282781 0.075617 0.763358
-0.280716 0.076068 0.767910
-0.283367 0.086127 0.763944
-0.280547 0.085733 0.768588
-0.284604 0.096202 0.764455
-0.280530 0.096172 0.768997
-0.292521 0.105289 0.760661
-0.287306 0.105796 0.764716
-0.280335 0.102420 0.768574
-0.286238 0.115454 0.765220
-0.285361 0.125477 0.764722
-0.285889 0.135741 0.765098
-0.287190 0.145868 0.764618
-0.292734 0.153293 0.760140
-0.287101 0.155680 0.764829
-0.280842 0.159797 0.769105
-0.286609 0.165931 0.764597
-0.280266 0.162464 0.768386
-0.286763 0.176118 0.765178
-0.279953 0.179568 0.768310
-0.293441 0.187047 0.761249
-0.287238 0.185866 0.766004
-0.279612 0.182538 0.768600
-0.293621 0.195370 0.761336
-0.288053 0.195501 0.766597
-0.293147 0.201984 0.761215
-0.288654 0.204977 0.764719
-0.288368 0.212400 0.767189
-0.279110 0.217321 0.760546
-0.286177 0.226422 0.763676
-0.287293 0.235347 0.763273
-0.285855 0.246619 0.764475
-0.278774 0.248219 0.765217
-0.286053 0.252942 0.763501
-0.279567 0.250754 0.764763
-0.302961 0.266237 0.760952
-0.297441 0.264986 0.762717
-0.289520 0.262975 0.765294
-0.267911 0.263372 0.767050
-0.302762 0.275350 0.760453
-0.297345 0.277565 0.766098
-0.290969 0.277315 0.767853
-0.304478 0.282607 0.761650
-0.293917 0.283373 0.766867
-0.290862 0.282285 0.769225
-0.214447 -0.301428 0.775784
-0.208413 -0.302341 0.779074
-0.216388 -0.293792 0.773286
-0.210539 -0.293943 0.776827
-0.215528 -0.283696 0.775234
-0.208533 -0.285561 0.778585
-0.215894 -0.273782 0.776132
-0.210470 -0.273947 0.779877
-0.215488 -0.264352 0.775533
-0.215816 -0.253936 0.775011
-0.210238 -0.252674 0.779185
-0.167988 -0.251242 0.773842
-0.216200 -0.244811 0.773854
-0.207806 -0.242836 0.778753
-0.196583 -0.241512 0.779453
-0.188448 -0.242614 0.778865
-0.214633 -0.234579 0.772664
-0.207727 -0.234416 0.778657
-0.196977 -0.234418 0.778782
-0.189264 -0.234331 0.776807
-0.178508 -0.232242 0.771201
-0.215166 -0.223072 0.774788
-0.207569 -0.224700 0.778442
-0.197047 -0.224799 0.777818
-0.188535 -0.224937 0.772282
-0.222907 -0.212512 0.771268
-0.217339 -0.214540 0.775469
-0.207187 -0.214706 0.776918
-0.197252 -0.214041 0.773917
-0.190194 -0.214297 0.771517
-0.217049 -0.204962 0.772383
-0.207544 -0.205438 0.772473
-0.199832 -0.206493 0.771342
-0.189396 -0.209127 0.770362
-0.213989 -0.197963 0.770253
-0.211299 -0.199038 0.770167
-0.212591 -0.165690 0.772588
-0.211306 -0.166760 0.771718
-0.223288 -0.090567 0.770417
-0.218297 -0.091857 0.770716
-0.224774 -0.083751 0.771212
-0.219005 -0.084624 0.771531
-0.226270 -0.074133 0.772324
-0.217357 -0.074272 0.772540
-0.233186 -0.063198 0.771056
-0.227213 -0.064665 0.775532
-0.216943 -0.064736 0.776014
-0.208683 -0.063186 0.772083
-0.233181 -0.054093 0.771685
-0.227492 -0.054870 0.777159
-0.216468 -0.055112 0.778646
-0.207054 -0.054516 0.775093
-0.198428 -0.053127 0.772092
-0.233863 -0.044242 0.772197
-0.229691 -0.044961 0.777556
-0.214585 -0.048742 0.779497
-0.205918 -0.046390 0.778569
-0.196759 -0.045016 0.775676
-0.188486 -0.042962 0.772577
-0.180539 -0.039730 0.770042
-0.243335 -0.029708 0.770323
-0.235990 -0.033459 0.772631
-0.230488 -0.034724 0.777783
-0.193487 -0.038513 0.779256
-0.186135 -0.035068 0.776599
-0.179627 -0.033828 0.772003
-0.244185 -0.023922 0.771031
-0.237473 -0.024409 0.775092
-0.182811 -0.026801 0.777039
-0.177318 -0.024343 0.773563
-0.156108 -0.019667 0.770167
-0.268491 -0.009659 0.772312
-0.246398 -0.014423 0.772398
-0.238534 -0.017269 0.775133
-0.172375 -0.015385 0.775633
-0.166765 -0.012206 0.774659
-0.157107 -0.013764 0.774692
-0.148770 -0.012208 0.774415
-0.272845 -0.003570 0.770401
-0.269589 -0.004331 0.770890
-0.248451 -0.004608 0.774932
-0.164897 -0.008475 0.779092
-0.161059 -0.008473 0.778944
-0.127451 0.000403 0.771333
-0.272729 0.001657 0.770073
-0.271475 0.001657 0.770073
-0.247096 0.006305 0.775550
-0.241862 0.008662 0.779733
-0.127451 0.001660 0.771333
-0.272707 0.019841 0.770011
-0.267871 0.019469 0.770170
-0.254553 0.016981 0.770602
-0.247181 0.016112 0.774323
-0.241110 0.016797 0.779543
-0.273667 0.027225 0.771304
-0.267555 0.026381 0.772571
-0.256965 0.025951 0.774019
-0.247176 0.025403 0.776692
-0.241753 0.021987 0.779381
-0.274322 0.036130 0.772071
-0.267282 0.035176 0.776873
-0.257100 0.033774 0.777752
-0.247946 0.033342 0.776928
-0.241889 0.039780 0.779819
-0.274313 0.045716 0.772251
-0.268893 0.045266 0.777333
-0.244646 0.043292 0.779357
-0.241786 0.046532 0.779486
-0.274496 0.055408 0.773745
-0.270383 0.055108 0.777760
-0.275981 0.065763 0.775266
-0.276796 0.075475 0.775618
-0.276981 0.085538 0.775916
-0.277281 0.095805 0.775567
-0.282684 0.106936 0.770836
-0.278234 0.105889 0.775074
-0.282714 0.117534 0.771465
-0.277707 0.115614 0.775726
-0.282568 0.128528 0.771255
-0.278316 0.125104 0.775673
-0.282511 0.136407 0.771785
-0.279501 0.135489 0.776123
-0.282838 0.144208 0.771137
-0.279736 0.145798 0.775604
-0.282951 0.154456 0.771904
-0.279188 0.156466 0.775953
-0.282714 0.167232 0.771461
-0.277988 0.166226 0.776696
-0.282649 0.175017 0.771765
-0.276840 0.175576 0.775976
-0.277112 0.186328 0.774316
-0.283367 0.197240 0.771519
-0.278452 0.195141 0.775490
-0.283975 0.206044 0.773903
-0.280443 0.205766 0.777306
-0.284396 0.211447 0.773153
-0.279662 0.212483 0.777398
-0.283098 0.222616 0.779631
-0.285574 0.234664 0.775232
-0.287216 0.244314 0.775944
-0.272842 0.242492 0.772166
-0.286766 0.267742 0.771897
-0.276687 0.264518 0.772500
-0.286720 0.275350 0.772197
-0.277281 0.277639 0.774948
-0.293046 0.287858 0.770729
-0.286967 0.285624 0.772897
-0.277689 0.282715 0.777465
-0.288272 0.291565 0.771822
-0.204709 -0.301738 0.782031
-0.199188 -0.303679 0.786626
-0.205770 -0.294641 0.782552
