# .PCD v0.7 - Point Cloud Data file format
VERSION 0.7
FIELDS x y z
SIZE 4 4 4
TYPE F F F
COUNT 1 1 1
WIDTH 1307
HEIGHT 1
VIEWPOINT 0 0 0 1 0 0 0
POINTS 1307
DATA ascii
-0.029297197 -0.023407841 0.0052365959
-0.028266605 -0.027018229 0.0047646202
-0.033952903 -0.03051115 0.0048096073
-0.033478126 -0.03549277 0.0057454719
-0.041415155 -0.035500005 0.0086411443
-0.040749826 -0.035500001 0.0087579656
-0.039578412 -0.035500001 0.0087580932
-0.038674302 -0.035500001 0.0089160427
-0.037512582 -0.035500001 0.0084824245
-0.036641292 -0.035499997 0.0085362643
-0.035535093 -0.035500005 0.008447336
-0.032955624 -0.033769064 0.005187918
-0.033496499 -0.035500001 0.0083712805
-0.027017884 -0.024206711 0.0035242508
-0.025165105 -0.029078636 0.0065666968
-0.030486912 -0.035500001 0.0083901528
-0.032785937 -0.023782147 0.0028012986
-0.028529927 -0.035500005 0.0085391384
-0.032613344 -0.03502126 0.0042870278
-0.026309671 -0.035500001 0.0088665131
-0.014627282 -0.024742775 0.0028328984
-0.024046823 -0.035500001 0.0080749076
-0.023605505 -0.035500001 0.0085483408
-0.022552235 -0.035500005 0.0082752611
-0.025372697 -0.032753352 0.0047516935
-0.012222529 -0.031057203 0.0029636824
-0.019562369 -0.035500001 0.0084817354
-0.018553553 -0.035500005 0.0084770573
-0.021230664 -0.028897766 0.0068531376
-0.020410439 -0.024842426 0.0052842079
-0.0032975455 -0.029177034 0.0063905357
-0.014688073 -0.035500001 0.0085534863
0.0015876275 -0.035500005 -0.0060942839
-0.012714351 -0.035500001 0.0083953487
-0.011093893 -0.035113931 0.004553366
-0.010507832 -0.035500005 0.0084872302
-0.012551593 -0.032324202 0.0053569055
-0.0085721593 -0.035500001 0.0086597046
-0.015110473 -0.026016165 0.0068019456
-0.0020426239 -0.035500001 0.0060907924
0.00015967978 -0.033326987 0.0077704368
-0.0043512117 -0.035500001 0.0085288575
-0.0040928442 -0.025357146 0.0077266367
-0.0049353079 -0.030237816 0.0054943552
-0.0015886357 -0.035500001 0.0084676128
-0.0044900947 -0.033728722 0.0066485172
0.00046647526 -0.035500001 0.0085960561
0.0013486393 -0.035500001 0.0085461857
0.0054893671 -0.020435341 0.0021295368
0.0033159903 -0.035500005 0.0084805815
-0.0040968349 -0.026664928 0.0070790984
0.0054708677 -0.035500005 0.0085417125
0.0063070315 -0.035500001 0.0084873429
0.0074254368 -0.035500001 0.0083202813
0.0084913634 -0.035500001 0.0083576767
0.0094413627 -0.035500005 0.0085151456
0.010414603 -0.035500005 0.0087336414
0.013367476 -0.017749999 0.005642103
0.012623738 -0.035499997 0.0086061694
0.013579699 -0.035500005 0.0086494042
0.010689232 -0.033141006 0.0056998478
0.015981095 -0.017750001 0.0044496423
0.016524188 -0.035500001 0.0088046491
0.017469764 -0.035500001 0.008752876
0.0004542821 -0.021838127 0.003533921
0.025228273 -0.023794923 0.003577285
0.020391561 -0.035500001 0.0083689559
0.021599529 -0.035500001 0.0084918039
0.011027127 -0.034324903 0.0051707039
0.023329586 -0.035500001 0.0085198479
0.0019137928 -0.023464974 0.0019454695
0.027314262 -0.035251424 0.0035199164
0.015162859 -0.028010156 0.0053778379
0.017881665 -0.03072763 0.0072864005
0.031497285 -0.026520416 0.005124446
0.029518921 -0.035500001 0.0084589813
0.030584246 -0.035500005 0.0082803797
0.031501934 -0.035500001 0.0087122964
0.032417968 -0.035500001 0.0083266012
0.03317862 -0.027811715 0.0069265869
0.028089546 -0.033105396 0.0057930369
0.03557805 -0.035500005 0.0083031273
0.036249802 -0.035500001 0.0086931782
0.037445143 -0.035500001 0.0085671591
0.038735818 -0.035500001 0.0082725361
0.039607652 -0.035500005 0.0083997026
0.040507756 -0.035500005 0.0084774299
0.031058256 -0.034109097 0.0061299717
0.042594124 -0.035500001 0.0083680674
0.03792293 -0.031673931 0.006529476
0.043359667 -0.03499813 0.0059174187
0.045515127 -0.035500001 0.008623533
0.04664677 -0.035500001 0.0085695758
0.04745061 -0.035333429 0.0088700289
-0.037948582 -0.027596632 0.0063661314
0.047499999 -0.03434908 0.0084455293
-0.047499999 -0.033454701 0.0085850004
0.029316628 -0.02762948 0.0044551785
-0.04744288 -0.025244119 0.0036430683
0.020183859 -0.023272663 0.0020400817
-0.047499999 -0.031640336 0.0085254814
0.047499999 -0.031415749 0.0084069576
-0.047499999 -0.030637808 0.0083881468
0.047499999 -0.030353788 0.0084203593
-0.047499999 -0.029640486 0.0087412409
0.047499999 -0.029505385 0.0084790485
-0.047499999 -0.028630827 0.008487625
0.047499999 -0.028479394 0.0081824344
-0.047499999 -0.027478334 0.0083945263
0.036462363 -0.022503987 0.0019599476
-0.047499999 -0.026375586 0.0086046048
0.047499999 -0.026712185 0.0083875787
-0.030946048 -0.019976938 0.0035917179
0.047499999 -0.025420746 0.0084304037
-0.047499999 -0.024721153 0.0086510023
0.047499999 -0.024462411 0.008672785
-0.047499999 -0.023456845 0.0085966941
0.046797287 -0.016213559 0.00614241
-0.047499999 -0.022337861 0.0084601659
0.047499999 -0.022534937 0.0085313646
-0.047499999 -0.021533845 0.0086166495
0.026054377 -0.0053021219 0.0035438847
-0.033733454 -0.016348587 0.004516575
0.03143169 -0.023044355 0.0063453568
-0.047499999 -0.018674051 0.0056732218
0.032041501 -0.016829859 0.003099333
-0.047499999 -0.01850445 0.0085118944
0.047499999 -0.018488903 0.0085461214
-0.037183374 -0.014398511 0.0052898927
0.047499999 -0.017609391 0.0084819999
-0.047499999 -0.016458945 0.0085260086
0.047499999 -0.016304092 0.0087059755
-0.040587574 -0.012125215 0.0056236368
0.047499999 -0.015286196 0.008727489
-0.040350642 -0.016549081 0.0052129067
0.046878085 -0.013160927 0.0054103169
-0.047499999 -0.013445508 0.0086926892
0.047499999 -0.01329218 0.0084437849
-0.047499999 -0.012675312 0.008289976
0.047499999 -0.012468359 0.0082499394
-0.047499999 -0.01145993 0.0084893871
0.047499999 -0.011541516 0.0085434522
-0.047499999 -0.010327091 0.0084333755
0.014899805 -0.0065280958 0.001139891
0.035730422 -0.0053222836 0.0074114259
-0.047499999 -0.0085531957 0.0086499406
0.047499999 -0.0086408891 0.0085383467
-0.034568325 -0.021427436 0.0011361921
0.047499999 -0.0072749369 0.0087761711
-0.040975481 -0.011023325 0.0035306774
0.044235732 -0.0052628405 0.0037797182
-0.047499999 -0.0054758508 0.0084270975
0.043234665 -0.0097146546 0.0060226014
-0.047499999 -0.0046217656 0.0083041377
0.047499999 -0.0043662386 0.0085536996
-0.047500003 -0.0036782911 0.0084274886
0.040966991 -0.01045935 0.0036233366
-0.047499999 -0.0025676999 0.0084062982
0.02265458 0.0089458814 0.0015913062
-0.030558538 0.0084095607 -0.011
0.047499999 -0.0013945688 0.0081477407
-0.030150361 -0.0015640308 0.007955241
0.047499999 -0.00056791492 0.0086612403
-0.047499999 0.00039141253 0.0085356245
0.047499999 0.00061412365 0.0084256241
-0.047499999 0.0013408808 0.0085806884
0.047499999 0.0018910971 0.0086391354
-0.042427879 0.0003531751 0.0077658202
0.047499999 0.0024361324 0.0084767435
-0.014032031 -0.015863329 0.0021264625
0.047499999 0.0037176048 0.0085215177
-0.047499999 0.0043419106 0.0084601399
0.047499999 0.0046228068 0.0083900969
-0.047499999 0.00588647 0.0087508783
0.042101812 0.012395418 0.003220503
-0.047499999 0.006305954 0.0087834205
0.031909298 0.008720356 0.0045271106
-0.036180541 -0.0047059767 0.0030973684
0.025999662 5.5256922e-05 0.0020383652
-0.047499999 0.011466053 0.0061708535
0.04489718 0.0090617687 0.0050311117
-0.02375 -0.00024696509 0.0059258332
0.047499999 0.0093582589 0.0081813894
-0.047499999 0.010673123 0.008463542
0.047499999 0.010521464 0.0085144732
-0.025059164 0.017278494 0.0021640682
0.047499999 0.011620893 0.0082841357
-0.030466951 0.011869545 0.0033528144
-0.047499999 0.013321955 0.0082335137
0.047499999 0.01369921 0.0081379293
-0.02117346 0.011040702 0.0019532412
0.047499996 0.014549282 0.0089726308
-0.042322252 0.01657304 0.0065277815
0.047499999 0.015494327 0.0087519577
-0.047499999 0.016462706 0.008508645
0.045103639 0.0060677589 0.0067671142
-0.014320752 0.013740469 -0.001333183
0.032713212 0.0093055619 0.0046537369
-0.021764921 0.0093456358 0.00072588446
0.027022185 0.017328186 0.0046523744
-0.047499999 0.019429708 0.0083832648
0.047499999 0.019422987 0.0085491054
-0.040211055 0.014347636 0.0038538442
0.043711592 0.014403801 0.0036985348
-0.034149271 0.023827827 0.0061271116
0.029118264 0.020991698 0.0047468389
-0.047014028 0.014186524 0.0053371293
0.030906273 0.0076106922 0.00066657813
-0.047499999 0.023307156 0.008480086
0.047499999 0.023601746 0.0084708538
-0.047499999 0.024646753 0.0086105391
0.031666666 0.024249133 0.0055309143
-0.047499999 0.025507279 0.0084062237
0.044968702 0.026215542 0.0060197255
-0.042528942 0.019452497 0.0053858547
0.047499999 0.026489621 0.0087772459
-0.047499999 0.027660878 0.0086627454
0.015635232 0.022699013 -0.0012900196
-0.047499999 0.028562402 0.0085938908
0.047499999 0.028522596 0.0086518936
-0.047499999 0.029493351 0.0087793851
-0.047499999 0.030434281 0.0086406907
0.047499999 0.030720647 0.0081047434
-0.047499999 0.031450901 0.008516917
0.01353382 0.012906739 -4.0096675e-05
-0.04370714 0.021903336 0.0046008634
0.047499999 0.032664504 0.0083761578
-0.047499999 0.033500958 0.0084492406
0.024601497 0.0037534311 0.0017978782
-0.039855294 0.025199026 0.0021322395
0.047499999 0.034770124 0.0085066985
-0.03479765 0.035442147 0.0057787853
-0.035855398 0.034799226 0.0053244005
-0.045447759 0.035499997 0.0085861804
-0.047499999 0.015261044 -0.0024789076
-0.018274434 0.020179667 -0.0011845005
-0.032637261 0.025357146 0.0067828316
-0.041450907 0.035500001 0.0082683936
-0.03347832 0.029948482 0.0056801355
-0.039269324 0.035500001 0.0085458858
-0.015594158 0.035500001 0.003013609
-0.021301102 0.023875445 0.0045012902
-0.033915464 0.032835171 0.0069700647
-0.035537183 0.035500001 0.0082033807
-0.034452826 0.035500001 0.0085817212
-0.026618252 0.034761179 0.0033034149
-0.010240006 0.017576346 3.2235603e-05
-0.026282553 0.031346835 0.0081584062
-0.030425269 0.035500001 0.0081049511
-0.029352194 0.035500001 0.0086065456
-0.0018274523 0.0077263196 0.0020731869
-0.027347622 0.035500001 0.0088002589
-0.026413599 0.035500005 0.0086903386
-0.024005588 0.026676452 0.0051185517
-0.024645828 0.035500001 0.0084849708
-0.025785934 0.027279001 0.0036271196
0.0056235427 0.023331117 -0.0014195349
-0.011802128 0.025357146 0.0082768267
-0.020434495 0.035500001 0.0085639637
-0.0079499204 0.015781818 0.001244353
-0.018329252 0.035500005 0.0084738452
-0.0175357 0.035500001 0.0084481454
-0.016278705 0.035500005 0.008538004
-0.016639195 0.035500001 0.0066464283
-0.014308501 0.035500001 0.008239964
-0.013394365 0.035500001 0.0084235128
-0.010378061 0.025501383 0.005122202
-0.011631882 0.035500005 0.0085490998
-0.010638725 0.035500001 0.0083255069
-0.0095776413 0.035500001 0.0088054314
-0.008259315 0.035500001 0.0085620843
-0.009204247 0.019374086 0.0035527283
-0.012244256 0.03092655 0.0046756482
-0.0056799315 0.035500001 0.0081106089
-0.0093810121 0.031615123 0.0079396553
-0.0034259416 0.035500005 0.0084420815
-0.0014460416 0.035500005 0.0083277188
-0.00053576648 0.035500005 0.0086300056
-0.010803577 0.025025373 0.006438205
-0.0019027025 0.022498358 0.0038723021
0.0025749188 0.035500001 0.0085171284
-0.00016611847 0.034495033 0.0051705092
0.0045323246 0.035500001 0.0082272235
0.0053803418 0.035500001 0.0087410212
0.0066306689 0.035500005 0.008423768
0.0058197444 0.026625002 0.0079177162
0.012333607 0.027665807 0.0052837646
0.011251046 0.033758204 0.006111294
0.010690132 0.035500005 0.0085141174
0.011572269 0.035500005 0.0087352097
0.017380897 0.022774952 0.0052216151
0.013387832 0.035500001 0.0086438945
0.014384268 0.035500001 0.0082093552
0.015678743 0.035500001 0.008971245
0.020174438 0.0191106 0.0046068328
-0.011898347 0.025823921 0.00019484013
0.018617073 0.035500001 0.0084519787
0.019513538 0.035500001 0.0083902217
0.015077834 0.035500005 0.0073431171
0.016174817 0.035500005 0.0071608159
0.0060751159 0 0.0011220211
0.023467215 0.035500001 0.0083468761
0.0097209802 0.022546558 0.0017495702
0.020950897 0.032485101 0.0051022759
0.026687276 0.035500001 0.0085697165
0.02733985 0.035500001 0.0084085045
0.028481867 0.035500001 0.0081894202
0.022450989 0.024902016 0.0033222579
0.018381519 0.030734107 0.0046454053
0.031423558 0.035500001 0.0084416782
0.018925194 0.027483191 0.0035936378
0.033517815 0.035500001 0.0084150825
0.034418397 0.035500005 0.008445709
0.035401549 0.035500005 0.0083977496
0.036689885 0.035500001 0.0087641701
0.03770205 0.035500001 0.0081432965
0.038323957 0.035500001 0.0085188774
0.025890587 0.021721199 0.004597147
0.023703767 0.028111005 0.0046236007
0.022037512 0.023091603 0.0020362027
0.042229436 0.035500001 0.0089975288
0.042195618 0.028363829 0.0062695025
0.044590734 0.035500001 0.0081012258
0.041913293 0.024118563 0.0038167182
0.033077423 0.027925262 0.0060787876
0.047388624 0.035401218 0.0085375113
-0.033760212 -0.0194631 0.0042722197
-0.032543316 -0.024813851 0.0026609981
-0.037304729 -0.026545214 0.0044138697
-0.044588946 -0.035500005 0.0096245324
-0.043641809 -0.035500005 0.0095793465
-0.031636637 -0.02924169 0.0069485051
-0.041629292 -0.035500001 0.0096425451
-0.039400645 -0.035500001 0.0095817978
-0.038513392 -0.035500001 0.009516011
-0.021298535 -0.017749999 0.0062866244
-0.032734148 -0.023108557 0.0044733621
-0.035594791 -0.035500001 0.0096909432
-0.034529902 -0.035500001 0.0094711427
-0.033453412 -0.035500001 0.0094264057
-0.032477558 -0.035500001 0.0095443195
-0.024611641 -0.022672174 0.0035437387
-0.015381388 -0.026774615 0.004310159
0.0022470963 -0.021089068 0.003122634
-0.028501447 -0.035500001 0.0096308477
-0.027643695 -0.035500001 0.0093652904
-0.026555872 -0.035500001 0.009587313
-0.031137433 -0.027259938 0.0051795254
-0.02438782 -0.035500001 0.0093767308
-0.023546491 -0.035500001 0.0090282038
-0.022860276 -0.02234764 -0.0004273238
-0.021720976 -0.035500001 0.0095585464
-0.024909561 -0.025829125 0.0086015603
-0.019349253 -0.035500001 0.0097460486
-0.012515752 -0.023666669 0.0084955376
-0.017706024 -0.035500005 0.009641937
-0.015794275 -0.035500001 0.009718094
-0.014517615 -0.035500001 0.0094383731
-0.011992563 -0.03224197 0.0065427381
-0.012586143 -0.035500001 0.0093587339
-0.0066089584 -0.011833334 0.0035483516
-0.006905416 -0.026625002 0.0092045786
0.017088264 -0.035500001 0.0013868765
0.01450017 0.035500005 -0.0072709927
-0.0045476183 0.035500001 0.0063582696
-0.011414923 -0.034848481 0.0069099814
-0.0055503421 -0.035500001 0.0094262604
-0.0044672135 -0.032924142 0.0038398101
0.00097933947 -0.031902023 0.0053608278
-0.011133932 -0.033656724 0.0054963683
-0.0083875936 -0.028961658 0.0068179774
-0.00037340599 -0.035500001 0.0095453477
0.00052583346 -0.035500005 0.0095019061
0.0013991855 -0.035500001 0.0093447762
0.0026470434 -0.035500001 0.0091331666
0.0037239338 -0.035500005 0.009784624
0.011989299 -0.028335687 0.0060194507
0.0077160536 -0.023661295 0.0054578781
0.0064724581 -0.035500001 0.0093698194
0.00091081968 -0.02616605 0.0076450729
0.0084647192 -0.035500001 0.0096216863
0.0016575288 -0.017749999 0.0082823858
0.0079877647 -0.032369778 0.0076517933
0.011308108 -0.035500001 0.0096552214
0.0031189853 -0.026063582 0.0038878382
0.014053386 -0.029045459 0.0091385012
0.011599201 -0.018852461 0.0026411838
0.017740894 -0.029509984 0.0083465371
0.016366908 -0.035500001 0.0094141383
0.017316347 -0.035500001 0.0094306553
0.008962377 -0.033017617 0.004312255
0.020579163 -0.026625002 0.0092689935
0.015542893 -0.034281492 0.0060117943
0.021736732 -0.031984236 0.0062160096
0.02290537 -0.035500001 0.009477864
0.023426555 -0.035499997 0.0095130308
0.0045942441 -0.033502556 0.0044057858
0.025637429 -0.035500005 0.0093798935
0.011599268 -0.024300402 0.0054381946
0.027770644 -0.035500001 0.009476155
0.031220794 -0.020774759 0.0043426096
0.010146504 -0.01407469 -0.00073206425
0.031289171 -0.021300001 0.0072911824
0.029622402 -0.034990005 0.0054543819
0.030771917 -0.03295698 0.0085006189
0.033850301 -0.035500005 0.0092065129
0.034675613 -0.035500001 0.0094836047
0.035321906 -0.035500005 0.0095032686
0.019046923 -0.020150464 0.0026243622
0.024962774 -0.030265046 0.0056217383
0.038373619 -0.035500001 0.0094451644
0.039402802 -0.035500001 0.0095630679
0.040366635 -0.035500005 0.0094859479
0.041642141 -0.035500005 0.0096983491
0.042557981 -0.035500005 0.0095293587
0.033360288 -0.029953636 0.0078941276
0.04545337 -0.035500001 0.0093697328
0.04641629 -0.035499997 0.0093694013
0.044432085 -0.028299345 0.0080868304
-0.047499999 -0.034659073 0.0095140114
0.040177874 -0.034679119 0.0089699021
-0.026074151 -0.0022159317 0.0025857016
0.047499999 -0.033322677 0.0098188333
-0.047499999 -0.03241536 0.0097197592
0.047499999 -0.032552943 0.0094207786
-0.047499999 -0.031497966 0.0094107911
0.042260543 -0.020037619 0.0042629153
-0.020885786 -0.013817629 0.0024570606
0.047499999 -0.030645497 0.0096396711
-0.042912211 -0.021476334 0.0061347373
0.038913865 -0.023934238 0.0066816951
-0.045113537 -0.025550425 0.0055375583
0.047499999 -0.028753554 0.0095647983
-0.043748915 -0.022291193 0.0052234712
0.047499999 -0.027961468 0.0095179323
-0.038885452 -0.021364966 0.0052702352
0.047499999 -0.026432509 0.0096083777
-0.047499999 -0.025396815 0.0092450604
0.030510414 -0.025272518 0.0054265442
-0.032629326 -0.019054405 0.0039328239
0.047499999 -0.024495937 0.0094834771
-0.047102518 -0.015285174 0.0053686905
0.020779856 -0.010060388 0.004106083
-0.030575451 -0.013094882 0.0043521449
0.035754643 -0.0094552375 0.0043117581
-0.047499999 -0.021840548 0.0097244391
0.047499999 -0.021577634 0.0094119776
-0.032243431 -0.013187919 0.0041844333
0.047499999 -0.020457977 0.0096051386
-0.03639067 -0.018013103 0.0071838833
0.034683362 -0.010582709 0.0051489747
-0.045056678 -0.019454341 0.0065554352
0.047499999 -0.018309802 0.0096587567
-0.037999999 -0.014978359 0.0079506487
0.047499999 -0.017263681 0.0098648611
-0.032498226 -0.0084479069 0.0060597248
0.020873437 -0.0086184852 -0.0007777391
-0.047499999 -0.015474658 0.0095039578
0.044793501 -0.0099833766 0.0052505792
-0.047499999 -0.01453292 0.0097346324
0.047499999 -0.014497817 0.0095079215
-0.047500003 -0.013648328 0.0094787972
0.047499999 -0.013444054 0.0096572964
-0.047499999 -0.01238556 0.0094460119
0.040267114 -0.014559268 0.005629159
-0.04208941 -0.010037645 0.0074692327
0.047499999 -0.011331728 0.0092446264
-0.047500007 -0.010492273 0.0095874099
0.047499999 -0.010526491 0.009640485
-0.047499999 -0.0093916291 0.0097347554
0.030122867 -0.0058061127 0.0053566704
-0.047499999 -0.0080219461 0.009743968
0.031666666 -0.010380961 0.0066760788
-0.047499999 -0.0074943001 0.0096267937
-0.0030910033 -0.013423598 -0.011
-0.01524605 -0.0047351085 0.0027643184
0.047499999 -0.0062962091 0.0095304484
-0.037923336 -0.0039514671 0.0064921905
0.047499999 -0.0056043705 0.0093032941
-0.047499999 -0.0041410672 0.0092625106
0.04179015 -0.00063947053 0.0075175008
-0.047499999 -0.0036443796 0.0093282117
0.032110792 -0.0030964869 0.0040862458
-0.047499999 -0.0026866784 0.0093697719
0.047499999 -0.0022313017 0.0096523333
-0.047499999 -0.0014450364 0.0095273284
0.027518895 -0.012274428 0.0053311381
-0.047499999 -0.00069998857 0.0096960692
0.047499999 -0.00041712524 0.0095049161
-0.04248498 0.0005258114 0.006885211
0.047499999 0.00037840157 0.0097053926
-0.047499999 -0.0045744437 0.0094219446
0.02017273 0.012627008 0.00553382
-0.045116991 0.0021558178 0.0076087499
0.047499999 0.0022670962 0.0097411852
-0.038296655 -0.0012932234 0.0042596674
0.047499999 0.0034544133 0.0095024323
-0.047499999 0.0045389859 0.0092911907
0.047499999 0.0045516617 0.009745515
-0.047499999 0.005449289 0.0093581593
0.047499999 0.0053347372 0.0094134733
-0.015955269 0.00013164447 0.0051675392
0.038000047 0.0076941093 0.0061205672
-0.047499999 0.0075934893 0.0096913837
0.043486152 0.0096323593 0.0052696057
-0.045328259 -0.0003765898 0.0093629509
0.047499999 0.0082010617 0.0094119385
-0.047499999 0.0096490402 0.0093172872
0.047499999 0.0094483038 0.0093876962
-0.047499999 0.010721143 0.0095583089
0.026893741 -0.0018301456 0.0011853783
-0.040821947 0.00023568596 0.0064774593
0.0016949148 0.0044014971 -0.0029710692
-0.042535238 0.0078922259 0.0060982741
0.047499999 0.012708359 0.0098354667
-0.038696662 0.0056532053 0.0053495164
0.047499999 0.013248121 0.0095451567
-0.047499999 0.014401153 0.0095852865
0.047499999 0.014671531 0.0095522553
-0.039672703 0.017287547 0.0074653574
0.043117221 0.0077912193 0.0044737132
-0.033209063 0.016907705 0.0062183104
0.026204236 0.0069328877 0.0044096839
-0.047499999 0.017855376 0.0096333716
0.03647938 0.012991453 0.0055620386
-0.024793932 0.01433791 0.0017944631
0.036300793 0.010444988 0.0054537482
-0.036704812 0.014004308 0.0072856918
0.047499999 0.019613765 0.0093069738
-0.047499999 0.020490443 0.009194525
0.041533813 0.014222138 -0.00099003548
0 -0.0051352996 0.0090647787
0.039764374 0.023632742 0.0073535927
-0.004113046 0.029977869 0.0015279597
0.034362163 0.0013460696 0.0030178507
-0.025218736 0.0087817963 0.0044253785
0.045310486 0.025789363 0.0054986412
-0.047499999 0.024658052 0.0094677741
0.047499999 0.024278644 0.0096527711
-0.031666666 0.022009399 0.0069433991
0.04206023 0.024734778 0.0066512981
-0.02375 0.021040734 0.0053990399
0.041422855 0.020253804 0.0076524317
-0.04120275 -0.012422202 -0.0020715904
-0.0044338936 -0.014406181 0.0007322451
-0.047499999 0.028671388 0.00979535
0.047499999 0.028356362 0.0095891999
-0.037705593 0.016795961 0.0042234426
0.047499996 0.029521873 0.0094498126
-0.039247036 0.031923935 0.0063339793
0.047499999 0.03065501 0.0096972184
-0.047499999 0.03155959 0.0096677858
0.047499999 0.031444874 0.0093984287
-0.047499999 0.032728262 0.0093632406
0.047500007 0.032553867 0.0095659029
-0.047499999 0.033393927 0.0093053188
0.047499999 0.033479381 0.0093408804
-0.04497125 0.027689083 0.0082409894
0.047499999 0.034702625 0.0095744655
-0.025427697 0.035500001 0.0071206763
-0.036933787 0.02802771 0.0044321287
-0.041011266 0.032326847 0.0064065433
-0.038307957 0.035500005 0.0070872493
-0.04385329 0.035500001 0.0096016545
-0.042717189 0.035500001 0.0097018424
-0.04149393 0.035500001 0.0094503546
-0.035690527 0.02077195 -0.00085773179
-0.039545633 0.035500001 0.0093226321
-0.038582142 0.035500001 0.0096990271
-0.037341494 0.035500001 0.0096434271
-0.036264516 0.035500001 0.0094042709
-0.03667096 0.028181573 0.00688037
-0.033282839 0.03380869 0.0025352752
-0.033461794 0.035500001 0.0097301453
-0.032623231 0.031422302 0.0072826273
0.018941684 0.026907012 -0.0090703908
0.0010627694 0.032583766 0.0060776831
-0.029581323 0.035500001 0.0091082752
-0.028404837 0.035500001 0.0091891838
-0.027541449 0.035500005 0.0095254835
-0.026513645 0.035500001 0.009641014
-0.025587017 0.035500001 0.0096399784
-0.022424361 0.027248617 0.0088509321
-0.023762213 0.035500001 0.0095035955
-0.022374121 0.035500001 0.0094856275
-0.0078587066 0.03249051 0.00542614
-0.017210074 0.016666381 0.0013044638
-0.019759376 0.035500001 0.0095552215
-0.018567339 0.035500001 0.0094234962
-0.0024183027 0.017749999 0.0070956973
-0.015127044 0.018935062 -0.00067487266
-0.015590815 0.035500001 0.0095562078
-0.014587083 0.035500001 0.0095456038
-0.013701218 0.035500001 0.0095247999
-0.0030697496 0.018774448 0.001456195
0.012059855 0.013451337 0.0070321443
-0.011633351 0.029909084 0.0028871668
-0.0095356125 0.035500005 0.009648147
-0.0080245426 0.031863611 0.0047091171
-0.020725735 0.027424347 0.0047541233
0.0031963396 0.023531854 0.0028319154
0.0028731616 0.021300001 0.0081547499
-0.00457808 0.035500001 0.0095141064
0.021200767 0.027240921 0.0074371099
0.0012842682 0.025515264 0.0016107779
-0.0016745355 0.035500001 0.0094720786
-0.00019627251 0.035500001 0.0097905677
-0.0019808542 0.0096158599 0.0070603592
0.0012636371 0.035500005 0.0094617568
0.0025588747 0.035500001 0.0095046712
0.0036742419 0.035500001 0.0095040025
0.0020758908 0.027983416 0.0060006659
0.003744076 0.030838583 0.0046479665
0.0062968144 0.035500001 0.0095807193
0.0075000543 0.035500005 0.0094227372
0.0084556704 0.035500001 0.0094289305
0.0096836928 0.035500001 0.0097222235
-0.0040943241 0.018907921 0.0058043804
0.011409707 0.035500001 0.0096991071
-0.0025904085 0.033765599 0.009473104
0.01347178 0.035500001 0.0094472468
0.014568504 0.035500001 0.0093029086
0.0085950354 0.023049442 0.0055367425
0.019779174 0.035500005 0.0068328804
0.005946246 0.030502724 0.0035462398
0.012507453 0.030590504 0.0094911968
0.015445868 0.022816658 0.0060932231
0.02057069 0.035500001 0.0092690932
0.021394609 0.035500001 0.0093641225
0.020552201 0.032132529 0.0067122714
0.023671705 0.035500001 0.0096523333
0.024526875 0.035500001 0.0094619924
0.025559615 0.035500005 0.0095727965
0.026399326 0.035500005 0.0095156673
0.027526647 0.035500001 0.0094920294
0.028560851 0.035500005 0.0095307156
0.0037777624 0.012515101 0.0090693347
0.030019403 0.035500001 0.0092054876
0.021988351 0.023613594 0.0042159292
0.032441847 0.035500001 0.0096353944
0.03143274 0.026126079 0.0077270581
0.037265442 0.007949708 0.0037719915
0.027619381 0.035500005 0.0087881219
0.036246356 0.035500001 0.0095175849
0.030619059 0.03384418 0.0074709477
0.038520295 0.035500001 0.00951818
0.039597422 0.035500001 0.0093821893
0.03725845 0.031508673 0.0060132276
0.035239283 0.034826797 0.0058856304
0.042488523 0.035500001 0.0093895225
0.043374177 0.035500005 0.0094029382
0.041510407 0.021300001 0.0087310299
0.045340821 0.035500005 0.0095181828
0.034523062 0.022362851 0.0021530697
0.02815612 0.026564462 0.0018379507
-0.041101303 -0.02589369 0.0066543804
-0.032270458 -0.031740323 0.0071092732
-0.023273494 -0.032764941 0.0036758287
-0.022065211 -0.014015897 0.0057894699
-0.043418504 -0.035455104 0.010494262
-0.042900972 -0.035448425 0.010738301
-0.020712955 -0.013054071 0.0074388385
-0.033852126 -0.035498019 0.0061930926
-0.039558481 -0.035348859 0.010656371
-0.038541727 -0.035332579 0.010761859
-0.037506878 -0.035280064 0.010958269
-0.018378567 -0.01398352 0.0018452739
-0.014494891 -0.020849988 0.0035269782
-0.030456424 -0.031116016 0.0072394796
-0.033461057 -0.035372429 0.010634042
-0.032612674 -0.035469845 0.010700047
-0.031120131 -0.035382062 0.010701505
-0.030641973 -0.035500001 0.01010435
-0.0295588 -0.035391271 0.010770272
-0.028476581 -0.035469189 0.010653666
-0.032804973 -0.029345106 0.0062251706
-0.026427671 -0.035422534 0.010726198
-0.025464689 -0.035449721 0.010635552
-0.024211716 -0.030494887 0.0099587971
-0.027720254 -0.012930176 0.0071167699
-0.021795971 -0.029999014 0.0087400619
-0.021401541 -0.035359234 0.010861637
-0.020373799 -0.035500005 0.010678432
-0.019557318 -0.035235401 0.010780152
-0.018663991 -0.034100045 0.0060619726
-0.018113166 -0.035429075 0.0078539662
-0.019499272 -0.035477802 0.009313954
-0.017799225 -0.031253994 0.0075860401
-0.018921707 -0.032404099 0.010490823
-0.013665285 -0.035379309 0.010651809
-0.012652216 -0.035435151 0.01077906
-0.011528323 -0.035469104 0.01066348
-0.010633289 -0.035448678 0.010675016
0.0038849665 -0.02932306 0.0045924657
-0.010350047 -0.028706025 0.0080461157
-0.0074148849 -0.035376262 0.010711657
-0.0066112569 -0.035500005 0.010505449
-0.0012511356 -0.033842556 0.0078024147
-0.004454758 -0.035402857 0.010598154
-0.0049761473 -0.035014089 0.0086202761
-0.0078222482 -0.028876493 0.0085168844
-0.0015761319 -0.035396632 0.010782837
-0.002206611 -0.02825458 0.0079268236
0.00047665974 -0.035412773 0.01075506
0.0064612455 -0.034101695 0.0096708573
0.0022019767 -0.021521779 0.0071730139
0.0032632377 -0.035434894 0.011
0.0043089511 -0.035426296 0.010610152
-0.0059167566 -0.019590249 0.0032907284
0.0064984849 -0.035308469 0.010773255
0.00049017638 -0.02526019 0.0075165969
0.0087139774 -0.035500005 0.010326567
0.0077479607 -0.025300147 0.0069944719
0.010480515 -0.035413541 0.010672907
0.011638545 -0.03536538 0.010701923
0.012605434 -0.035494693 0.010674109
0.013460049 -0.035414029 0.010574755
0.013491794 -0.029542912 0.0094157346
0.012543626 -0.030101305 0.0086353859
0.010970767 -0.033665806 0.0062703425
0.017410733 -0.035427857 0.010720541
0.018259514 -0.035500001 0.010510731
0.014344315 -0.020432919 0.0032883044
0.010843795 -0.029436413 0.0093948673
0.021581525 -0.035359912 0.010787905
0.017152876 -0.030296274 0.0075417375
0.0036327494 -0.010942696 0.0034750514
0.026013931 -0.027932465 0.0071212584
0.028728899 -0.034498021 0.0095749823
0.018033251 -0.017796341 -0.00035928818
0.027328786 -0.035434358 0.010554502
0.028555373 -0.035372294 0.010823234
0.021686174 -0.02701148 0.0072022639
0.023308001 -0.033839252 0.0092064962
0.027243987 -0.01386073 0.0037161203
0.032737933 -0.035462629 0.010785731
0.031386785 -0.018113766 0.0032541952
0.01611696 -0.028844628 0.0067729931
0.0148427 -0.018554762 0.0052998601
0.036407407 -0.035409771 0.010633833
0.037392527 -0.035420366 0.010671665
0.036570366 -0.035131592 0.0063260989
0.026961867 -0.015198145 0.0042006741
0.040385388 -0.028829837 0.0081980368
0.041443806 -0.035491776 0.01067467
0.035964269 -0.032168079 0.0088766916
0.034551859 -0.032268349 0.0079729501
0.023027029 -0.020994997 0.005434453
0.032569509 -0.023950255 0.0067766993
0.046352565 -0.035391413 0.010960018
0.039480109 -0.034827467 0.0076613077
-0.047191754 -0.034332629 0.011
-0.0091835493 -0.0023375545 0.0025076219
-0.045419246 -0.034667373 0.011
-0.044554546 -0.034396544 0.011
-0.043362539 -0.034566741 0.011
-0.042284776 -0.034306124 0.011
-0.041571949 -0.034418073 0.011
-0.032319792 -0.032597244 0.0073333336
-0.039376058 -0.034365017 0.011
-0.03874075 -0.026862092 0.006111111
-0.0098376544 -0.016772423 0.0022
-0.025678057 -0.020618904 0.0083054351
-0.035329215 -0.034367304 0.011
-0.034365475 -0.034266539 0.011
-0.02617945 -0.030331215 0.0055
-0.032544736 -0.034215167 0.011
-0.031418342 -0.034332361 0.011
-0.03088209 -0.0190583 0.0055
-0.029323179 -0.034922309 0.011
-0.022331627 -0.031391602 0.0088903541
-0.027697537 -0.03436096 0.011
-0.027251819 -0.031456299 0.0094332816
-0.02573736 -0.034825608 0.011
-0.024351995 -0.034373038 0.011000001
-0.023394432 -0.034457888 0.011
-0.015005584 -0.029651292 0.0048136869
-0.023560563 -0.027524656 0.0078571429
-0.020283211 -0.034577083 0.011
-0.0194293 -0.034256782 0.011
-0.0052975174 -0.027511423 0.00731134
-0.0045062555 -0.025521953 0.0081118494
-0.0094885845 -0.0086181676 0
-0.015635896 -0.034558784 0.011
-0.010518778 -0.027832879 0.0052191196
-0.013497595 -0.034573466 0.011
-0.012390886 -0.034448951 0.011
-0.011723487 -0.034712981 0.011
-0.01054631 -0.034447994 0.011
-0.0094957016 -0.034785207 0.011
-0.013227255 -0.010843009 0.0041912878
-0.0026372978 -0.026682831 0.0036666668
-0.0065035727 -0.034572989 0.011
-0.0056736581 -0.034193173 0.011
-0.010459628 -0.03307258 0.0080573959
-0.0013217432 -0.028725922 0.0054918169
-0.0027478635 -0.033766031 0.0095633194
-0.0013948407 -0.03454997 0.011
-0.0032339082 -0.033258308 0.0091265608
0.00063780963 -0.034559816 0.011
0.0063305888 -0.025698327 0.010589734
-0.011403783 -0.022669723 0.0036666668
0.0034987512 -0.034254421 0.011
-0.0013314702 -0.028941417 0.0093719475
0.0045807967 -0.027560445 0.0078571429
0.0065387678 -0.034619071 0.011000001
0.0075077927 -0.034401599 0.011
-0.0017910009 -0.031371426 0.0072295368
0.018582297 -0.021043364 0.0091116363
0.010500924 -0.034745041 0.011
0.0064368728 -0.028124914 0.0078571429
0.01254518 -0.034403086 0.011
0.020294068 -0.034927305 0.0087524913
-0.0027457289 -0.015872663 -0.011
0.015184378 -0.034729235 0.011
0.0048525347 -0.027338475 0.0055
0.017475139 -0.03461729 0.011
0.014751413 -0.021598862 0.007060213
0.019701771 -0.034399889 0.011
0.0097777052 -0.022924598 0.00778272
0.024820296 -0.018466556 0.0022
0.022583313 -0.034577213 0.011
0.023546971 -0.034531418 0.011
0.024542069 -0.034382489 0.011
0.02561963 -0.034712732 0.011
0.026623942 -0.034460399 0.011
0.015425546 -0.033926371 0.0036666668
0.018838806 -0.025961781 0.0066
0.028932443 -0.033361576 0.0073333336
0.030675815 -0.034592271 0.011
0.031422891 -0.034380358 0.011
0.033308368 -0.034666624 0.0098172277
0.033478554 -0.034634866 0.011
0.034902569 -0.034877054 0.011
0.035417568 -0.034613416 0.011
0.024800336 -0.020457113 0.0088972514
0.037474602 -0.034338553 0.011
0.038372189 -0.034749441 0.011
0.039617568 -0.034080204 0.011
0.035163414 -0.023713877 0.0025185575
0.039750122 -0.023041688 0.0058704615
0.030069489 -0.031332709 0.0066
0.022630099 -0.034757867 0.0088038538
0.044712316 -0.034524541 0.011
0.019261533 -0.0077312663 0.0077001052
0.039755143 -0.02309748 0
0.047499996 -0.034557868 0.010753677
-0.04745803 -0.033469621 0.01043625
-0.046425302 -0.033716697 0.011
-0.033704303 -0.03188115 0.0097085647
-0.044735 -0.033532795 0.011
-0.022615246 -0.027326934 0.0083492761
-0.023243286 -0.03243098 0.0055
-0.041592132 -0.03358794 0.011
-0.033629227 -0.024260778 0.0089475438
-0.031565554 -0.021877408 0.0080830092
-0.030042978 -0.031945102 0.0079849353
-0.037345223 -0.033456936 0.011
-0.036592472 -0.033434898 0.011
-0.035280939 -0.033278279 0.011
-0.034512997 -0.033298012 0.011
-0.025471924 -0.018377747 0.0027949039
-0.020990562 -0.01671065 0.0082754381
-0.02981852 -0.01831216 0.0091567803
-0.029423086 -0.033917043 0.0078952787
-0.022440912 -0.033871572 0.010047597
-0.028318901 -0.033334397 0.011
-0.027649222 -0.033267569 0.011
-0.026510853 -0.033403274 0.011
-0.028594481 -0.025758745 0.0090437233
-0.024149831 -0.024878791 0.0073333336
-0.017949618 -0.027770728 0.0066
-0.022323061 -0.033522658 0.011
-0.0097023509 -0.018570596 0.0071569183
-0.025282037 -0.024729818 0.0036666668
-0.025126828 -0.027639136 0.0096910838
-0.02459039 -0.033595026 0.0055
-0.017480223 -0.03353462 0.011
-0.016404625 -0.033475798 0.011
-0.015499949 -0.03385967 0.011
-0.014206041 -0.033809923 0.011
-0.0091543039 -0.016603198 0.0036666668
-0.012360087 -0.033497293 0.011000001
-0.011546214 -0.033512518 0.011
-0.010319957 -0.033467773 0.011
-0.0010056607 -0.021951124 0.0047741225
-0.0088777784 -0.033444822 0.011
-0.0074559217 -0.033196062 0.011
-0.0070611252 -0.032878354 0.0078571429
-0.0056023467 -0.033522174 0.011
-0.004349092 -0.033359457 0.011
-0.006205433 -0.018081496 0.0015979949
-0.0023571691 -0.033424176 0.011
-0.0058838902 -0.024968242 0.0085707894
-0.00056561548 -0.033489801 0.011
-0.0036433442 -0.014510263 0.0036666668
0.0014470302 -0.033319104 0.011
0.002369374 -0.033302467 0.011
0.0034116243 -0.0334513 0.011
0.0021233731 -0.019712616 0.0082857599
0.0054859901 -0.033711027 0.011
0.0018549919 -0.016802136 0.0036666663
0.011543084 -0.028200382 0.0066
0.0085590724 -0.033518981 0.011
0.0097449142 -0.033334937 0.011
0.010382503 -0.033601858 0.011
0.011816147 -0.033406883 0.011
0.012401506 -0.033510391 0.011
0.013650163 -0.033555917 0.011
0.014436831 -0.033469524 0.011
0.015459063 -0.033207413 0.011
0.01607978 -0.024833372 0.0037288105
0.025131756 -0.028817242 0.0089332871
0.01859954 -0.033336438 0.011
0.020111721 -0.028026734 0.0073333336
0.020447962 -0.03395658 0.011
-0.015225014 -0.033665761 0.00021762702
-0.011267326 -0.025900278 0
0.023427425 -0.033519961 0.011
0.024513431 -0.033619341 0.011
0.025737878 -0.03348596 0.011
0.012631451 -0.030381784 0.0049524112
0.027285632 -0.033416115 0.011
0.016383026 -0.02282064 0.0022
0.022163991 -0.02567854 0.0066
0.030622769 -0.033573475 0.011
0.015784081 -0.031911585 0.0077550062
0.032888986 -0.033555318 0.011
0.02662283 -0.023711883 0.010230718
0.034113232 -0.033522878 0.011
0.035395648 -0.033580806 0.011
0.0098307664 -0.017096546 0.0022
0.016242212 -0.028074268 0.0091560502
0.038512487 -0.033559639 0.011
0.039581046 -0.033299696 0.011
0.040752418 -0.033324089 0.011
0.041533381 -0.03361265 0.011
0.042497616 -0.03336332 0.011
0.043688953 -0.033497311 0.011
0.042397335 -0.019287858 0.0056230347
0.04525977 -0.033377524 0.011
0.046507884 -0.033489574 0.011
0.044128373 -0.033657741 0.010434763
-0.040592231 -0.031154417 0.0092377095
-0.046444565 -0.032354992 0.011
-0.038340818 -0.030996196 0.00825
-0.044687055 -0.032658629 0.011
-0.043583136 -0.032532811 0.011
-0.042195939 -0.032798197 0.011
-0.041507337 -0.032831803 0.011
-0.040683474 -0.032580789 0.011
-0.039606683 -0.032525953 0.011
-0.038413748 -0.032818563 0.011
-0.037576351 -0.032576725 0.011
-0.036411017 -0.032438453 0.011
-0.035603702 -0.032251962 0.011
-0.036498096 -0.026647693 0.010533052
-0.033469889 -0.032555752 0.011
-0.032271177 -0.032625847 0.011
-0.031467818 -0.032439735 0.011000001
-0.03077542 -0.032406382 0.011
-0.027482191 -0.023000931 0.0055
-0.028519606 -0.032755442 0.011
-0.011966567 -0.028553043 0.0073295617
-0.020592591 -0.024988113 0.0066
-0.024692325 -0.019386768 0.0066931201
-0.024361446 -0.03219986 0.011
-0.020434912 -0.028049257 0.0057345391
-0.019836044 -0.032064267 0.0055
-0.02146971 -0.032366663 0.011
-0.020732552 -0.032535773 0.011
-0.019444389 -0.032451198 0.011
-0.0019290922 -0.031175606 0.005618453
-0.0028813547 -0.017940346 0.0018959243
-0.0028180431 -0.015629282 0.0036666668
-0.0090946369 -0.028530251 0.010171839
-0.017129093 -0.019350572 0.0036666668
-0.0028969047 0.0087845968 -0.0024035717
-0.0092556393 -0.028510828 0.0078571429
-0.0076210289 -0.021796618 0.0061398903
-0.010662369 -0.032351136 0.011
-0.01530071 -0.032886311 0.0080524152
-0.0074142083 -0.032620888 0.011
-0.0063930824 -0.032334916 0.011
0.00096307386 -0.032137081 0.0073333336
-0.0044091768 -0.032478474 0.011
-0.0035055063 -0.032597806 0.011
-0.00024072733 -0.019974085 0.0055
-0.0016917791 -0.032389231 0.011
0.0040758625 -0.021712583 0.0085499454
-0.0031936998 -0.03282531 0.006625534
0.0014399998 -0.032299366 0.011
-0.0066629043 -0.017453684 0.0075175883
0.0033583385 -0.032372318 0.011
0.00465754 -0.032716408 0.011
0.0054373546 -0.032416593 0.011
0.0065611638 -0.032617088 0.011
0.01099476 -0.030380433 0.0094663929
0.0037512579 -0.019880209 0.0072478671
0.0098249447 -0.032440059 0.011
0.014578071 -0.027607374 0.0078571429
0.020887269 -0.010279891 0.0029949839
-0.011334718 -0.018570919 0.0039023322
0.013614109 -0.032473866 0.011
0.014665168 -0.032675177 0.011
0.0078106648 -0.019278277 0.0060608024
0.0037102108 -0.032624699 0.0055
0.013368887 -0.030070428 0.00825
0.018495845 -0.032663479 0.011
0.018369626 -0.015857257 0.0044223466
0.020720761 -0.032414466 0.011
0.021120153 -0.032567732 0.011
0.022593377 -0.032553624 0.011
0.0023498463 -0.001005613 -0.0036666668
0.022156388 -0.015821476 0.0082183294
0.011731599 -0.033026211 0.0071038851
0.026506556 -0.032360386 0.011
0.021308843 -0.024142146 0.0052836239
0.0283533 -0.032617006 0.011
0.02947576 -0.032232743 0.011
0.030586598 -0.032469399 0.011
0.031633146 -0.032183602 0.011
-0.0069331727 -0.0045334604 0.00015669689
0.026507104 -0.027713599 0.0086039621
0.034937557 -0.032350942 0.011
0.0080857901 -0.02404651 0.0050947466
0.036353797 -0.032530442 0.011
0.030409709 -0.018476816 0.0036666668
0.03871569 -0.032448541 0.011
0.039684482 -0.032368571 0.011
0.030442081 -0.029623037 0.00825
0.041263752 -0.030406266 0.0073333336
0.042599417 -0.032320485 0.011
0.031003485 -0.016923362 0.004714286
0.044433888 -0.032524616 0.011
0.034033321 -0.03110832 0.0036666668
0.046350542 -0.032631095 0.011
0.036371678 -0.030365333 0.0079651223
-0.039220884 -0.025890382 0.0070443451
-0.029980509 -0.020673733 0.0064614639
-0.017998932 -0.02518411 0.0029237375
-0.02821178 -0.032332662 0.00064721797
-0.032975141 -0.022633929 0.0073333336
-0.040320367 -0.023291107 0.0055
-0.041555937 -0.031226184 0.011
-0.040624645 -0.031574409 0.011000001
-0.023903461 -0.027084475 0.0066
-0.038308114 -0.031531487 0.011
-0.037411697 -0.031335559 0.011
-0.036722228 -0.031372782 0.011
-0.034983292 -0.029529044 0.0080302283
-0.029863959 -0.021868266 0.010023659
-0.035916239 -0.02636577 0.0066
-0.032939944 -0.031960923 0.011
-0.033020761 -0.02968337 0.0055
-0.021393053 -0.0294176 0.0073333336
-0.032920972 -0.023080681 0.0036666668
-0.028856091 -0.025426419 0.0078571429
-0.027830996 -0.031207491 0.011
-0.026608219 -0.031417709 0.011
-0.029647171 -0.028449211 0.0055105062
-0.024534337 -0.031164926 0.011
0.017029284 -0.0029141109 0.0039525619
-0.019531617 -0.032058928 0.010219125
-0.023844762 -0.028497532 0.0078571429
-0.02421443 -0.021812718 0.0082083847
-0.0052396581 -0.0148662 0
-0.011950399 -0.03187865 0.0073333336
-0.0062643802 -0.014597955 0.0058804988
-0.016529839 -0.0314929 0.011
-0.015644772 -0.031377163 0.011
-0.014582989 -0.031527963 0.011
-0.0059622494 -0.026198398 0.0078571429
-0.0049252147 -0.027532462 0.0056314683
-0.011317132 -0.031549629 0.011000001
-0.010488728 -0.031295758 0.011
0.00030961167 -0.032180764 0.0054197861
-0.008588694 -0.031635351 0.011
-0.0073094321 -0.031513203 0.011
-0.0064587533 -0.031394985 0.011
-0.0053641088 -0.031330243 0.011
-0.004516081 -0.031509724 0.011000001
0.0045249774 -0.029798025 0.0048302459
-0.0026685223 -0.031416189 0.011
-0.0029265087 -0.031693257 0.0090650888
-0.00035987049 -0.031604897 0.011
0.0003653678 -0.031614922 0.011
0.0059393495 -0.025227901 0.0073333336
0.002457872 -0.031353224 0.011000001
-0.013520082 -0.013094112 0.0051641939
0.012003436 -0.032465335 0.0074753794
0.0054904507 -0.031646546 0.011
-0.0057971501 -0.026106609 0.0066951681
-0.00015102381 -0.026911521 0.0078571429
0.0066279601 -0.032711346 0.0081447158
-0.0041603921 -0.032318633 0.011
0.010249466 -0.031282209 0.011
-0.028468115 0.017383482 -0.011
0.011200039 -0.030548217 0.009025027
-0.002900112 -0.031970195 0.0028197207
0.019926373 -0.021994043 0.0096725198
0.014793206 -0.015434597 0.0055
0.01771082 -0.031403881 0.011
0.0087938011 -0.02990656 0.0073333336
0.019046931 -0.031190142 0.011
0.023437351 -0.020557305 0.0073333336
0.021462355 -0.031888992 0.011
0.015043578 -0.02877914 0.0073333336
0.014111877 -0.015303975 0.0071804202
0.013517283 -0.015663845 0.0097715296
0.0080836806 -0.02325538 0.0050115567
0.026744008 -0.031404808 0.011
0.018108578 -0.026355986 0.010161523
0.03132616 -0.014914229 0.0036666668
0.029707799 -0.031590648 0.011
0.030652782 -0.03141303 0.011
0.019535244 -0.018042954 0.0078033609
0.032542806 -0.031565856 0.011
0.03343695 -0.031611413 0.011
0.01713419 -0.018529333 0.0055
0.035720281 -0.031627133 0.011
0.036492713 -0.031485066 0.011
0.032384258 -0.019924378 0.0065672272
0.037816055 -0.016241547 0.0028196203
0.039477021 -0.031463444 0.011
0.040373873 -0.03154815 0.011
0.018000022 -0.0091579072 0.0045449128
0.036883306 -0.031241966 0.0066
0.017501172 -0.01079502 -2.3283064e-10
0.030829396 -0.016493833 0.0039166203
0.033037487 -0.028343756 0.0085049681
0.046916369 -0.031541027 0.011
0.044875529 -0.024741022 0.0091353953
-0.038032271 -0.021813167 0.0091614453
-0.030088848 -0.027281197 0.01020084
-0.045556415 -0.030548371 0.011
-0.035151135 -0.031371586 0.0087398356
-0.024218239 -0.020016184 0.0041227913
-0.042584747 -0.030258549 0.011
-0.04129957 -0.03068969 0.011
-0.037026703 -0.0048048617 0
-0.039577384 -0.030525619 0.011000001
-0.013575137 -0.03204044 0.0078706313
-0.037641097 -0.030184094 0.011
-0.036435813 -0.030355996 0.011
-0.0291669 -0.028070513 0.0075011975
-0.029430876 -0.022301072 0.0078571429
-0.036169451 -0.013956957 0.0079087121
-0.017217485 -0.025109103 0.0036666668
0.026046515 -0.020660745 -0.011
-0.030645272 -0.030493027 0.011
-0.015144357 -0.031675056 0.0096933125
-0.028250769 -0.030765597 0.011
-0.014910437 -0.023502044 0.0079458458
-0.026660688 -0.030460885 0.011
-0.014450646 -0.025297489 0.0083982386
-0.012209954 -0.024251349 0.0060693454
-0.023228236 -0.030535003 0.011
-0.018341064 -0.022297312 0.010542643
-0.021840006 -0.030609541 0.011
-0.0098568778 -0.02728088 0.0091583822
-0.0081105409 -0.030213101 0.0077986694
-0.02010408 -0.027147021 0.0036666668
-0.011014691 -0.017220041 0.0092934044
-0.016436048 -0.030296382 0.011
-0.015236762 -0.030360162 0.011
-0.014374878 -0.030649966 0.011
-0.013561028 -0.030298745 0.011
-0.01031274 -0.029436236 0.0066779237
-0.0082829315 -0.026725652 0.008481686
-0.010460922 -0.030652551 0.011
-0.0059848996 -0.027647328 0.0030663994
0.00099549885 -0.030228993 0.010254827
-0.0077758268 -0.030444384 0.011
-0.0061971899 -0.030267898 0.011
0.0020154151 -0.026081495 0.010815057
0.0032433379 -0.022174438 0.0055
-0.003531459 -0.030575354 0.011
-0.0090606529 -0.031151062 0.0073333336
-0.0014554964 -0.030375613 0.011
-0.0032556576 -0.026524659 0.0055
0.00063148665 -0.030719925 0.011
0.0016026734 -0.030472973 0.011
0.0029450357 -0.030658141 0.011
0.0034016329 -0.030510312 0.011
0.0021298532 -0.030348722 0.011
0.0055265808 -0.030699262 0.011000001
0.00054354034 -0.031553693 0.0094761839
0.0077071236 -0.030535746 0.011
0.0083939172 -0.030404607 0.011000001
0.0095110666 -0.030547364 0.011
0.013097516 -0.021022251 0.0070756972
0.023597432 -0.026816038 0.0081309918
0.004905358 -0.031120494 0.0078911809
0.013425192 -0.030487239 0.011
0.014571505 -0.030412441 0.011
0.015432686 -0.030463785 0.011
0.012094421 -0.0069564795 0.00061708502
0.013594802 -0.031959057 0.0047905501
0.018424593 -0.030475482 0.011
0.019503685 -0.030563042 0.011
0.020269446 -0.030450845 0.011
-0.0061655361 -0.013250386 0.0028153819
0.025286598 -0.020823462 0.0066
0.026903473 -0.022285294 0.0087083392
0.02584675 -0.030932164 0.010856307
0.025103217 -0.030802915 0.011
0.0268033 -0.03058124 0.011
0.027758639 -0.030547652 0.011
0.028386347 -0.030517783 0.011
0.029531553 -0.030840596 0.011
0.034952596 -0.016399737 0.010177407
0.031484857 -0.030311728 0.011
0.016439226 -0.029505931 0.0061052861
0.03351365 -0.030600239 0.011
0.034410335 -0.030455239 0.011
0.035427205 -0.030406881 0.011
0.036306728 -0.030334009 0.011
0.010263715 -0.014351504 0.0036666668
0.038472496 -0.03062835 0.011
0.02823887 -0.019630775 0.0073333336
0.040643085 -0.030699348 0.011
0.025775202 -0.032769375 0.00015307404
0.042466812 -0.03056171 0.011000001
0.041492008 -0.030984208 0.009331218
0.0022478013 -0.021161761 -0.0036068361
0.045251708 -0.030437738 0.011
0.04639459 -0.0303452 0.011
0.036734033 -0.031632852 0.0075551332
-0.039974399 -0.022111312 0.0071108565
-0.047060058 -0.02544515 0.0071730963
-0.045365117 -0.029675484 0.011
-0.044494685 -0.029553253 0.011
-0.043637462 -0.029528739 0.011000001
-0.021431213 -0.028217252 0.00074731582
-0.04185272 -0.029583838 0.011
-0.02526734 -0.029143821 0.010083334
-0.025914453 -0.016128389 0.0062934561
-0.023499338 -0.016526977 0.0039169597
-0.031600069 -0.026171852 0.0066
-0.024444664 -0.021225732 0.0055
-0.013619504 -0.029870894 0.0066531552
-0.037114281 -0.022183429 0.0078987777
-0.015863631 -0.031516559 0.004192933
-0.032769345 -0.029140195 0.011
-0.031388618 -0.02958091 0.011
-0.030318025 -0.02951034 0.011
-0.026586697 -0.028938767 0.0055
-0.028401814 -0.029500498 0.011
-0.02764098 -0.029523801 0.011
-0.029114889 -0.028318837 0.0055
-0.02529636 -0.029472694 0.011
0.0032885158 -0.017830841 0
-0.0048396317 -0.0050488552 0.0018717665
-0.022490811 -0.029284596 0.011
-0.021524023 -0.029211855 0.011
-0.020491622 -0.029511254 0.011000001
-0.010975283 -0.02268026 0.0055
-0.019511649 -0.030482622 0.0083564203
-0.017651901 -0.029321909 0.011
-0.01644811 -0.029399091 0.011000001
-0.0064672395 -0.022878764 0.0061083729
-0.014513765 -0.029466316 0.011
-0.017839102 -0.028510135 0.0078571429
-0.0091889482 -0.021963652 0.0084767751
0.00086480845 -0.0312647 0.010611291
-0.01039291 -0.029748373 0.011
-0.0095864478 -0.029315704 0.011000001
-0.0037279099 -0.02661727 0.0073333336
0.0061818869 -0.021535182 0.0086338287
-0.0084057702 -0.025604988 0.0085555557
-0.0029685071 -0.029277025 0.0090000005
-0.0044258246 -0.029732171 0.011
-0.0046585165 -0.026881484 0.0067072161
0.012960821 -0.012017004 0.0090324152
-0.0013643451 -0.029272692 0.011000001
-0.00044502597 -0.029611159 0.011
0.00068430358 -0.029675953 0.011
0.018248437 -0.020666242 0.001293733
0.0024539316 -0.029270153 0.011
0.0012641683 -0.019048547 0.0056108781
0.0024268457 -0.027608359 0.0085555557
0.0098051429 -0.029086715 0.0078571429
0.0065209828 -0.02941343 0.011
0.0074628168 -0.029360993 0.011
0.0084606921 -0.029446525 0.011
0.0095284423 -0.029726107 0.011
0.010448474 -0.029433932 0.011
0.011497748 -0.029590745 0.011
0.012309335 -0.0295646 0.011
0.015260707 -0.024508568 0.0078571429
0.014513582 -0.029206097 0.011
0.01536726 -0.029439226 0.011
0.023008324 -0.010029804 0
0.017408695 -0.029870924 0.011
0.022276264 -0.030239508 0.01066165
0.0078027248 0.0012052994 -0.0019613043
-0.0075749401 -0.0062490413 0
0.025411114 -0.03065104 0.0084305285
0.02594926 -0.028005797 0.0090825828
0.023441032 -0.029530862 0.011
0.024629522 -0.029154256 0.011
0.025254034 -0.029633299 0.011
0.026405551 -0.029134471 0.011
0.027742723 -0.029474679 0.011
0.02874358 -0.030910976 0.0086391084
0.020691013 -0.016301746 0.0076560089
