# .PCD v0.7 - Point Cloud Data file format
VERSION 0.7
FIELDS x y z
SIZE 4 4 4
TYPE F F F
COUNT 1 1 1
WIDTH 1220
HEIGHT 1
VIEWPOINT 0 0 0 1 0 0 0
POINTS 1220
DATA ascii
0.022425171 0.032499999 -0.0033841494
0.023374809 0.032499999 -0.0037142453
0.024507394 0.032499999 -0.0034281071
0.02556695 0.032499999 -0.0033844726
0.026444321 0.032499999 -0.0036356857
0.027530372 0.032499999 -0.0033730357
0.0318502 0.031681385 -0.0055003786
-0.0009058225 -0.022697359 -0.0185
0.030484181 0.032499999 -0.003398919
0.031644665 0.032499999 -0.003692335
0.032620825 0.032499999 -0.0037003034
0.012871194 0.022638451 -0.0084479442
0.022572499 0.025270756 -0.0074049011
0.035695378 0.032499999 -0.0037225522
0.036332771 0.032499999 -0.0035436577
0.026223563 0.023286697 -0.0091203889
0.023836654 0.027383361 -0.0085055362
0.039501451 0.032499999 -0.0034318403
0.033074856 -0.0014770876 -0.013472578
0.041430667 0.032499999 -0.0034676963
0.043306466 0.032499999 -0.0037574912
0.044462241 0.032499999 -0.0036181333
0.010044884 0.032393873 -0.0043251785
-0.026134629 0.0038191434 -0.014423684
-0.028173335 -0.021990439 -0.0065526459
-0.031662218 -0.031821329 -0.005147296
-0.042228125 -0.032499999 -0.0024254485
-0.041242607 -0.032499999 -0.0027591996
-0.040537216 -0.032499999 -0.0026464537
-0.01904605 -0.017479096 -0.0067589935
-0.038415309 -0.032499999 -0.0026756544
-0.037655652 -0.032499999 -0.0023963456
-0.032583505 0 -0.0071914438
-0.035540737 -0.032499999 -0.0024551861
-0.034488328 -0.032499999 -0.0025759805
-0.033836793 -0.032499999 -0.0022886517
0.0079800179 -0.020075776 -0.013318255
-0.031670909 -0.032499999 -0.0024226746
-0.03047484 -0.032499999 -0.0024371666
-0.016973859 -0.023077913 -0.0058223917
-0.028637044 -0.032499999 -0.0024631568
-0.027522948 -0.032499999 -0.002444542
-0.036046281 -0.026700836 -0.0031847304
-0.013261806 -0.031116307 -0.0078784628
-0.02476188 -0.032499999 -0.0024643317
-0.023277806 -0.032499999 -0.0023451769
-0.022440325 -0.032499999 -0.0025743563
-0.021736179 -0.032499999 -0.0026210907
-0.0054457532 -0.021143824 -0.0079194512
-0.019329704 -0.032499999 -0.0025760746
-0.018166341 -0.032499999 -0.0023451056
-0.017646026 -0.032499999 -0.0026939986
-0.012497212 -0.02404415 -0.0047087641
-0.015589694 -0.032499999 -0.0026778979
-0.014349356 -0.032499999 -0.0023812931
-0.013658509 -0.032499999 -0.0023790849
0.0002489335 -0.026567094 -0.0063992226
-0.011291125 -0.032499999 -0.0022940002
-0.010356396 -0.032499999 -0.0024219311
-0.0093828281 -0.032499999 -0.0025606621
-0.0086323712 -0.032499999 -0.0025011264
-0.0089419661 -0.030661996 -0.0050507691
-0.006709801 -0.032499999 -0.002502376
-0.0055891359 -0.032499999 -0.0023300499
-0.0046063173 -0.032499999 -0.0023717284
-0.007923591 -0.032499999 -0.0053618518
0.0059776427 -0.032499999 -0.0041332943
0.0061768563 -0.021666666 -0.0025622984
-0.00061922148 -0.032499999 -0.0022198046
0.0003931392 -0.032499999 -0.0024650693
0.0015086059 -0.032499999 -0.0025292672
0.002135722 -0.032499999 -0.0027014632
0.0035084866 -0.032499999 -0.0025249769
0.0042889044 -0.032499999 -0.0023126621
0.0077041741 -0.031935938 -0.0048608161
0.0068142992 -0.032499999 -0.0029216765
0.0016816808 -0.023389103 -0.0076403846
0.0012572319 -0.032199025 -0.0064816978
0.0098237265 -0.032499999 -0.0026821028
0.010467418 -0.032499999 -0.0024522485
0.011736957 -0.032499999 -0.0021011513
0.011938492 -0.016249999 -0.0056478297
0.017847935 -0.032499999 -0.0062061655
0.014312333 -0.032499999 -0.0024262993
0.015387985 -0.032499999 -0.0023070802
-0.0044363104 -0.0096628126 -0.0081313588
0.017452905 -0.032499999 -0.0026275793
0.018475544 -0.032499999 -0.002446895
0.019709228 -0.032499999 -0.0023597961
0.021395864 -0.026008755 -0.0045944946
0.0061504301 -0.030776894 -0.0068943803
0.022360964 -0.032499999 -0.0025649844
0.015900737 -0.024913501 -0.0055885352
0.018769488 -0.027953213 -0.0062899673
0.019224323 -0.0092810094 -0.0072235339
0.026432401 -0.032499999 -0.0024092789
0.0066000698 -0.010833333 -0.0055290191
0.018256074 -0.029725483 -0.0057243141
0.029533314 -0.032499999 -0.0023026343
-0.0024668742 0.0071416404 -0.012991907
-0.0082240067 -0.0082392804 -0.013050271
0.025645424 -0.018975422 -0.0065175397
0.026905609 -0.032499999 -0.0043101059
0.033134021 -0.025872072 -0.0058121043
0.032798272 -0.024374999 -0.0031408232
0.036741532 -0.032499999 -0.0026813527
0.035379678 -0.017929405 -0.006370517
0.032724157 -0.025924828 -0.0045685843
0.022749171 -0.012302609 -0.0087688314
0.031637918 -0.0195 -0.0033324615
0.023595765 -0.019022081 -0.01070054
0.034904499 -0.0230563 -0.0056817937
0.043592554 -0.032499999 -0.0023575351
0.04469974 -0.032499999 -0.0024522978
0.045355923 -0.0224822 -0.0028587447
-0.029908938 -0.027795566 -0.0057023237
0.035275981 -0.023240937 -0.0058491388
-0.041923158 -0.01821352 -0.0056619411
0.034572843 -0.023639634 -0.0065927631
-0.045499999 -0.029483331 -0.0023305134
0.045499999 -0.029390786 -0.0022928943
-0.023945255 -0.015430865 -0.0035625917
0.045499999 -0.028485283 -0.0025950719
-0.045499999 -0.027424693 -0.0025264521
0.045499999 -0.0275215 -0.0025399688
-0.045499999 -0.02639256 -0.0023747729
-0.045499999 -0.02546758 -0.0024945794
0.045500003 -0.025172506 -0.0029789871
-0.031639364 -0.01764391 -0.0051848474
0.045499999 -0.024126738 -0.0021295077
-0.033354044 -0.022135559 -0.0071644969
0.045499995 -0.023507928 -0.0024400775
0.041341677 -0.015427589 -0.0048958617
-0.045500003 -0.021538036 -0.0026108653
0.045499995 -0.021186829 -0.0026587993
-0.029556982 -0.0060539558 -0.0085573988
0.045499999 -0.020385398 -0.0028303168
-0.045500003 -0.019337442 -0.0023518768
0.032788277 -0.016988097 -0.0054982738
-0.045499999 -0.018629054 -0.0023723647
0.045500007 -0.013871694 -0.004079714
-0.045500003 -0.0133757 -0.0039992058
0.045500003 -0.017601363 -0.0025325189
-0.045500003 -0.016603373 -0.0022707367
0.037920084 -0.019690199 -0.005534661
-0.045500003 -0.015361436 -0.0024726815
0.045499999 -0.01561262 -0.0024483779
-0.045499995 -0.013672373 -0.0026546395
0.045499999 -0.014252937 -0.0024483488
-0.045500003 -0.013514114 -0.0023835923
0.045499999 -0.01333704 -0.0023855562
-0.045499999 -0.012408013 -0.0021015154
0.045499999 -0.012984768 -0.0027848477
-0.039157834 -0.0052680569 -0.0078767715
0.045499999 -0.011684588 -0.0026538561
-0.045500003 -0.01039952 -0.0023509779
0.045458041 -0.011594768 -0.0057685012
-0.045500003 -0.0096262079 -0.002412199
0.04181096 -0.0050243167 -0.0066286335
-0.045499995 -0.0085438602 -0.0022738918
0.024139203 -0.011658545 -0.0064608837
-0.045499999 -0.0077574439 -0.0027491641
0.045499999 -0.0074659064 -0.0024168119
-0.045499999 -0.0066012279 -0.0026474611
0.045499999 -0.0065094894 -0.0023359591
-0.026457079 -0.0008995079 -0.0065000188
0.034636658 -0.012330128 -0.0043498063
-0.035018653 -0.0079600858 -0.0053263856
0.038232096 -0.0076127267 -0.0046329373
-0.035608858 0.0001796633 -0.0078209937
0.045499995 -0.0032828979 -0.0020907372
-0.045499999 -0.0027166954 -0.002638265
0.045500003 -0.0023677689 -0.0023797203
-0.045500003 -0.001448227 -0.0024004234
0.045499999 -0.0014513986 -0.0023921442
-0.045499999 -0.00057616876 -0.0024240003
0.041357029 -0.0056853588 -0.0027003463
-0.045500007 0.00052330625 -0.0024175942
0.030333333 0.00059970416 -0.0028973855
-0.044295158 -0.0052345931 -0.0041550929
0.015166666 0.010401554 -0.002984148
-0.022460949 0.011260583 -0.0099989809
0.045500003 0.0026449773 -0.002485293
-0.045500003 0.0033515496 -0.0029435004
0.036815107 0.0060229632 -0.0052716527
-0.031449679 0.0065279594 -0.0060072253
0.045499999 0.004802864 -0.0023378076
-0.045500003 0.0057334052 -0.0025157582
0.045499995 0.0056192931 -0.0024744854
-0.045500003 0.0064884271 -0.0024223519
0.03249957 0.010879411 -0.0052037281
-0.045499999 0.0076392088 -0.0023017121
0.026284123 1.3308134e-05 -0.0084355799
-0.039652102 0.0032867591 -0.0044973511
0.032735303 0.0036732962 -0.0067165419
-0.045499995 0.0097495448 -0.0024334677
0.038703065 0.0079250233 -0.0041433601
-0.045499999 0.010377638 -0.0023846403
0.045499999 0.010752595 -0.0024080644
-0.045500003 0.011478256 -0.0024522985
0.045500003 0.011278957 -0.0023286603
-0.033015065 0.0054983324 -0.0053319125
0.045500003 0.0124726 -0.0025865824
-0.039636891 0.016138244 -0.0044751158
0.045499995 0.013128233 -0.002508509
-0.045500003 0.014299119 -0.0025956603
0.034489237 0.009960562 -0.0078566279
-0.045500003 0.015488794 -0.0028142817
0.045499999 0.015583805 -0.0022607108
-0.032499999 0.01551245 -0.0030340867
0.045500003 0.016453259 -0.0024588467
-0.045499995 0.017581634 -0.0026467107
0.016486106 0.009642316 -0.0078296401
-0.045499995 0.018498076 -0.0027542606
0.045500003 0.018265929 -0.002474617
-0.045499999 0.01957999 -0.0025474492
0.045500003 0.019505022 -0.0024658632
-0.045499999 0.020310864 -0.0024508436
0.045500003 0.020398455 -0.0025517242
-0.045499999 0.021646634 -0.0026070098
0.045499999 0.021619242 -0.0023003242
-0.045499999 0.022405416 -0.0025334179
0.045500003 0.022511175 -0.0024533356
-0.031102052 0.023276582 -0.0064725885
0.045499999 0.023453515 -0.0025244146
-0.045500003 0.024479879 -0.0024954348
0.045499995 0.024695542 -0.0023760037
-0.045500003 0.025788236 -0.002232126
0.045499999 0.025688821 -0.0025496345
-0.045499999 0.026662935 -0.0026537997
0.015166665 0.025434237 -0.0061766664
-0.045500003 0.027674895 -0.0025031304
0.045499995 0.02745169 -0.0024262585
-0.045499999 0.028447339 -0.0023254696
0.032332651 0.029209174 -0.0050325962
-0.027965562 0.019278985 -0.0064486368
0.045500003 0.029355824 -0.0023477846
-0.045499995 0.030651484 -0.0027969475
0.04328841 0.022705704 -0.0043797046
-0.045499999 0.03158389 -0.0025662228
0.045499999 0.031221421 -0.0022722681
-0.045500003 0.032318052 -0.0026081866
-0.044510271 0.032499999 -0.0025155086
-0.042796649 0.028952269 -0.0037416285
-0.041832536 0.032499999 -0.0025165926
-0.040529791 0.032499999 -0.0024200429
-0.031139607 0.032499999 -0.0044143023
-0.038394611 0.032499999 -0.0025229044
-0.037483908 0.032499999 -0.0028228755
-0.035683326 0.011374021 -0.0078119887
-0.035562124 0.032499999 -0.0024139509
-0.034454882 0.032499999 -0.0022735
-0.032561369 0.016249999 -0.0030476931
-0.030564368 0.021154806 -0.0051162336
-0.033297814 0.024390638 -0.0025568362
-0.033683639 0.022936851 -0.0055097113
-0.022619529 0.026021991 -0.0059570381
-0.028185334 0.032499999 -0.0026494977
-0.02750691 0.032499999 -0.0022334412
-0.026246181 0.032499999 -0.0028615533
-0.025523022 0.032499999 -0.0026822267
-0.016519634 0.028035495 -0.0076936027
-0.023149472 0.032499999 -0.0024006851
-0.018391777 0.032499999 -0.0048697833
-0.021772344 0.032499999 -0.0023451454
-0.020417923 0.032499999 -0.0023267684
-0.019421848 0.032499999 -0.0024850604
-0.018477065 0.032499999 -0.0025478504
-0.017316025 0.032499999 -0.0026736776
-0.015616991 0.01149002 -0.0078248885
-0.015592049 0.032499999 -0.0026462544
-0.014387134 0.032499999 -0.0024471979
-0.018324396 0.024632763 -0.0076883617
-0.011561665 0.032499999 -0.0025786646
-0.0050050155 0.023214286 -0.0045753364
-0.0026397805 0.013218935 -0.0064361962
-0.0087381788 0.032499999 -0.0022264784
-0.0076582795 0.032499999 -0.0024031571
-0.0063714767 0.032499999 -0.0024341932
-0.0055078268 0.032499999 -0.0026050005
-0.0074829557 0.02435055 -0.0048537436
-0.0037750164 0.032499999 -0.0025110841
-0.0023902347 0.032499999 -0.0024558152
-0.0022296561 0.028877733 -0.0040201903
-0.00054442621 0.032499999 -0.0025728666
0.014304502 0.018033963 -0.0057618204
0.0013805972 0.032499999 -0.0022763833
-0.0066654412 0.02199501 -0.0053507471
0.0034770858 0.032499999 -0.002256992
0.0046656467 0.032499999 -0.002628305
0.0053888541 0.032499999 -0.0024301475
0.006426957 0.032499999 -0.0025211889
0.0076439241 0.032499999 -0.0024912707
0.0089970632 0.032499999 -0.0023654159
0.0094201658 0.032499999 -0.0026069563
0.010443129 0.0245103 -0.0054273233
0.011594674 0.032499999 -0.0021955287
0.0010388609 0.010833333 -0.0064023188
0.013563083 0.032499999 -0.0026490695
0.014319927 0.032499999 -0.0021433905
0.020767117 0.026548609 -0.0045939493
0.016180046 0.032499999 -0.0025710464
0.017664518 0.032499999 -0.0024634865
-0.0084917769 0.013128667 -0.0081494823
0.019265041 0.032499999 -0.0026570708
0.00041878616 0.01437701 -0.0076839477
0.021101177 0.032499999 -0.0024418987
0.022774249 0.032499999 -0.0026761694
0.023668295 0.032499999 -0.0024611892
0.024557944 0.032499999 -0.0022039819
0.018692337 0.013493903 -0.0078712823
0.026526144 0.032499999 -0.0023983754
0.027517913 0.032499999 -0.0022593071
0.028405851 0.032499999 -0.002596559
0.029486967 0.032499999 -0.0024658819
0.034347031 0.027490908 -0.0039219358
0.030513305 0.02433853 -0.0048382576
0.032114722 0.032499999 -0.0022534374
0.035823494 0.02751386 -0.0053499914
0.034337789 0.032499999 -0.0020170845
0.032661885 0.024130849 -0.0041347584
0.036523517 0.032499999 -0.0026862528
0.033140518 0.018395143 -0.0045760842
0.017536759 0.018754931 -0.0062370757
0.037055638 0.0195 -0.004996805
0.040492032 0.032499999 -0.0026192917
0.041477144 0.032499999 -0.00229061
0.042307287 0.032499999 -0.0025785908
0.043453764 0.032499999 -0.002415797
0.044247191 0.032499999 -0.002599518
0.045336675 0.032246366 -0.0023276871
-0.045416161 -0.032428332 -0.001354488
-0.044675767 -0.032499999 -0.0018516313
-0.014065652 -0.029995499 -0.0064631714
-0.0352326 -0.030309496 -0.0044637835
-0.041511498 -0.032499999 -0.0014576275
-0.029031798 -0.0195 -0.0019224599
-0.039529026 -0.032499999 -0.0014984112
-0.030325854 -0.027851852 -0.0057831388
-0.020843992 -0.026114589 -0.0025491074
-0.036234498 -0.032499999 -0.0014996649
-0.037562322 -0.027554572 -0.0028680284
-0.03451965 -0.032499999 -0.0015317015
-0.033458166 -0.032499999 -0.001471743
-0.032464158 -0.032499999 -0.0013865016
-0.023305377 -0.02943613 -0.0071547343
-0.030673051 -0.032499999 -0.00139069
-0.029524546 -0.032499999 -0.0015556987
-0.019965632 -0.020927947 -0.0071272915
-0.013062872 -0.010833333 -0.0032006844
-0.026281038 -0.032499999 -0.0018456057
-0.025280651 -0.032499999 -0.0013403012
-0.023812938 -0.023210168 -0.0042649782
-0.023340974 -0.032499999 -0.0013795018
-0.0063588363 -0.028527774 -0.005694435
-0.0098017165 -0.030694384 -0.0049512507
-0.020586092 -0.029205211 -0.0032918327
-0.0053067803 -0.024379773 -0.0034815588
-0.0071945312 -0.020868547 -0.0047828453
-0.017551746 -0.032499999 -0.0019343402
-0.016483404 -0.032499999 -0.001614141
-0.015590492 -0.032499999 -0.0017004095
-0.012929939 -0.028796177 -0.0042585311
-0.013378365 -0.032499999 -0.0013624835
-0.012715941 -0.032499999 -0.0013727633
-0.011628848 -0.032499999 -0.0013316096
-0.010512877 -0.032499999 -0.0015943492
-0.015096134 -0.025206888 -0.0056925328
-0.0050566727 -0.014172323 -0.0046204347
-0.0074890517 -0.032499999 -0.0014439006
0.0037630606 -0.014509825 -0.0073007848
-0.0025794802 -0.023684068 -0.005056839
-0.0043636365 -0.032499999 -0.0015333991
-0.0033828656 -0.032499999 -0.0016039792
-0.0015032981 -0.032499999 -0.0013899505
0.0010926938 -0.01849415 -0.0071664564
0.00043549328 -0.032499999 -0.0013587764
-0.010095095 -0.01427366 -0.0067014545
0.0025720224 -0.032499999 -0.0018402301
0.0034311737 -0.032499999 -0.0018685274
0.0043781311 -0.032499999 -0.0016535732
0.0052067563 -0.032499999 -0.0015096177
0.020814415 -0.014260848 -0.0064666513
0.005788439 -0.032499678 -0.003309015
0.008414262 -0.032499999 -0.0016076737
0.00019717838 -0.032499999 -0.0030270272
0.010442398 -0.032499999 -0.0015951137
0.010915967 -0.015568426 -0.0099240271
0.012579568 -0.032499999 -0.0014836388
0.0099695399 -0.022488952 -0.0043399646
0.014731798 -0.032499999 -0.0015556972
0.015120739 -0.032499999 -0.0013631219
0.01652859 -0.032499999 -0.0014936652
0.017493008 -0.032499999 -0.0018086247
0.023577882 -0.028058229 -0.0051338109
0.019710705 -0.032499999 -0.0015157475
0.020664688 -0.032499999 -0.0013887068
0.021491423 -0.032499999 -0.0013147558
0.022510238 -0.032499999 -0.0017139472
0.023492968 -0.032499999 -0.0016678381
0.024492256 -0.032499999 -0.0018988025
0.025646791 -0.032499999 -0.0015100067
0.026543289 -0.032499999 -0.0014956088
-0.00031115487 -0.0080767246 -0.0098292511
0.028499737 -0.032499999 -0.001568944
0.029593691 -0.032499999 -0.0013665438
0.030609567 -0.032499999 -0.0015980974
0.031500652 -0.032499999 -0.0014875284
0.032734439 -0.032499999 -0.0012328906
0.033279765 -0.032499999 -0.0013843833
0.034493346 -0.032499999 -0.0016180447
0.01531528 -0.032421399 -0.0036130701
0.036177207 -0.032499999 -0.001290828
0.037638634 -0.032499999 -0.0017851365
0.021781584 -0.026315976 -0.0051477291
0.03983666 -0.032499999 -0.0013487762
0.040278018 -0.032499999 -0.0014735672
0.02751115 -0.032337621 -0.0049678325
0.042248886 -0.032499999 -0.0016271853
0.043622971 -0.032499999 -0.0014219647
0.02804631 -0.012602921 -0.0069724037
0.045455731 -0.032499999 -0.0012975
-0.045499999 -0.031065047 -0.0015213777
0.045499999 -0.031206254 -0.0016233944
-0.045500003 -0.030658547 -0.0014592003
0.045500003 -0.030734401 -0.0015571633
-0.02282992 -0.030590756 -0.0016281697
0.045499999 -0.02961869 -0.001820788
-0.045500003 -0.028492946 -0.0015762249
0.045500003 -0.028591402 -0.0015804496
0.045500003 -0.027727028 -0.001521514
-0.045499999 -0.02650008 -0.0016718759
0.045499995 -0.026582249 -0.0011869133
-0.045499999 -0.025744935 -0.0015336636
0.045499999 -0.02532921 -0.001193817
-0.035105083 -0.020154586 -0.0098080626
0.045500003 -0.024560964 -0.0014027171
-0.022574399 -0.014824129 -0.010106686
0.045499999 -0.023489166 -0.0015018965
-0.045499999 -0.022666443 -0.0018129835
0.045499995 -0.022454053 -0.001500814
-0.041932356 -0.022725677 -0.0050379597
0.021127027 -0.0093673365 -0.0099601084
-0.045499999 -0.020466441 -0.0016389715
0.039543662 -0.012624632 -0.0029946186
-0.043230776 -0.012042729 -0.0039232043
0.045499995 -0.004587058 -0.0033221149
-0.045499999 -0.018731028 -0.0016336741
0.045500003 -0.018264638 -0.0016897637
-0.045500003 -0.017672952 -0.0012905258
0.045500003 -0.017235972 -0.0014943735
-0.045499999 -0.016511161 -0.0014150086
0.045500003 -0.016271673 -0.0014390068
-0.045500003 -0.015527236 -0.0014552847
0.045500003 -0.015560837 -0.0014492047
-0.039173275 -0.010576343 -0.004508147
0.045500003 -0.014573103 -0.0017641196
-0.034834992 -0.013625378 -0.0044550579
0.045500003 -0.013642135 -0.0013248281
-0.045499999 -0.012440034 -0.001937245
0.045500003 -0.012628566 -0.0012718326
-0.045500003 -0.011316641 -0.0013954339
0.045500003 -0.011502299 -0.001432305
-0.045499999 -0.01034436 -0.0014240104
0.045500003 -0.010576615 -0.0017198077
-0.039864022 -0.00027397927 -0.010027079
0.045499999 -0.0096831201 -0.0010955133
-0.039653793 -0.0066989395 -0.0056540868
0.045500003 -0.0085403491 -0.0015605506
-0.020881278 -0.013348371 -0.0069548888
0.045499999 -0.0073809992 -0.0013909522
-0.045499999 -0.0066783009 -0.0012916244
0.045500003 -0.0063393265 -0.0014840998
-0.029946363 -0.0071826042 -0.0043942309
0.015166666 0.0057603084 -0.0070239119
-0.045500003 -0.0014054361 -0.0038738463
0.045500003 -0.0044610905 -0.0014591478
-0.0085706776 0.010933649 -0.0057792272
0.045499999 -0.0035112663 -0.0016347747
-0.045499999 -0.0024402244 -0.0012981056
0.041963648 -0.0031313945 -0.0020641768
-0.045499999 -0.001803996 -0.001530927
0.045499999 -0.0014503285 -0.0014428641
-0.045500003 -0.00053777918 -0.0015075423
0.045500003 -0.00034601992 -0.0018441787
-0.031849205 -0.0026437896 -0.0071172318
0.045500003 0.00050896505 -0.0016119479
-0.045499999 0.0014620258 -0.0011129763
0.045500003 0.0014624061 -0.0016572564
-0.045499999 0.0025387693 -0.0015007266
0.045499999 0.0024957662 -0.0016776543
-0.045500003 0.0036167693 -0.001546048
0.034533486 0.0027320215 -0.0040493398
-0.045500003 0.0048397668 -0.0015021861
0.017474525 0.0045306324 -0.0072704591
-0.045500003 0.0054665348 -0.0014729662
0.045499276 0.0093754986 -0.0056556072
-0.040015582 -0.0013276738 -0.0031538222
0.045500003 0.0064513106 -0.0014783879
-0.023098754 0.00028057187 -0.0058274558
0.015548311 -0.0046019629 -0.007128872
-0.026321134 -0.0019065258 -0.0022108955
0.045500003 0.0084023848 -0.0015233014
-0.045499999 0.0095327795 -0.0016041619
0.045500003 0.0094913319 -0.0015956529
-0.045500003 0.01078626 -0.0016454437
0.01895139 0.019146789 -0.0080609089
-0.045500003 0.011411855 -0.0014554862
0.045500003 0.011471805 -0.0012634455
-0.045500003 0.012104303 -0.0014080859
0.045500003 0.01269705 -0.0018356727
-0.035024557 0.0060550435 -0.0027003202
0.045499995 0.013747685 -0.0013116139
-0.029823311 0.01683444 -0.0052246554
0.021177348 0.0049101976 -0.0070737451
-0.045499999 0.015293155 -0.0015872553
0.045500003 0.01544754 -0.0016028879
-0.045499999 0.016463405 -0.0015819785
-1.8626451e-09 0.0067888848 -0.0095435102
-0.035843574 0.011912729 -0.0029563089
-0.035788603 0.015827497 -0.0046943934
0.045500003 0.01859694 -0.0016320668
-0.043504898 0.02137702 -0.0026361451
0.045500007 0.019559545 -0.0014589892
-0.037096743 0.012747794 -0.0047333841
0.021109853 0.0091823358 -0.0051934454
-0.03451125 0.023519432 -0.0055865613
0.028958457 0.023225432 -0.0043563871
-0.045500003 0.022118296 -0.0015100318
0.038140438 0.014567107 -0.0049043344
-0.039750159 0.014103064 -0.003104195
0.040820643 0.02013519 -0.0038728605
-0.045499999 0.024798285 -0.0012052893
0.045499999 0.024077442 -0.0019759429
-0.045499999 0.025408404 -0.0013089352
0.045500003 0.025353257 -0.0016828831
-0.045499999 0.026523968 -0.001571545
0.045499999 0.026738405 -0.001496884
-0.044153281 0.017457958 -0.0043589096
0.045499999 0.027557572 -0.0016329229
-0.045499999 0.028493211 -0.0016666568
0.045500003 0.028309498 -0.0015718278
-0.029233344 0.015111263 -0.010229094
0.045499999 0.029155537 -0.0011677439
-0.036701921 0.029906912 -0.0047154301
0.045500003 0.030219249 -0.001655183
-0.045499999 0.031426609 -0.0015120335
0.045499999 0.031423766 -0.0015485603
-0.036146596 0.025745831 -0.0044929055
-0.044543244 0.032499999 -0.001508333
-0.041703403 0.023348343 -0.0043383474
-0.042451497 0.032499999 -0.0013813289
-0.012717761 0.026085971 -0.0036986568
-0.039970454 0.030825952 -0.0038867195
-0.03995537 0.032499999 -0.0015316876
-0.038889572 0.032499999 -0.0014248556
-0.037536446 0.032499999 -0.0019114772
-0.025386492 0.026022311 -0.0056894552
-0.035518035 0.032499999 -0.0015988941
-0.033454247 0.032499999 -0.0016855663
-0.032391224 0.032499999 -0.0017079123
-0.02730375 0.025794316 -0.0057993378
-0.030442804 0.032499999 -0.0015752321
-0.029253874 0.032499999 -0.0015232498
-0.028476566 0.032499999 -0.0013949065
-0.015616504 0.02695089 -0.0048350976
-0.026402337 0.032499999 -0.0014558553
-0.027477248 0.023862138 -0.0044666161
-0.045499995 0.00657538 -0.016421791
-0.023313923 0.032499999 -0.0013562239
-0.022848189 0.032499999 -0.0014416827
-0.0080154082 0.032102782 -0.0036022146
-0.02059692 0.032499999 -0.0015583172
-0.019677958 0.032499999 -0.0016517609
-0.030120065 0.011973704 -0.01006132
-0.015949462 0.028489357 -0.0045050168
-0.016470559 0.032499999 -0.0015129908
-0.003174141 0.026614249 -0.0034107927
0.00034554116 0.023778029 -0.002991576
-0.01347099 0.032499999 -0.0010886925
-0.01258707 0.032499999 -0.0015859229
-0.011238206 0.032499999 -0.001566375
-0.0065252399 0.021666666 -0.0018616574
-0.0093852421 0.032499999 -0.0016437465
-0.0085006971 0.032499999 -0.0013955019
-0.026744388 0.019217024 -0.0082673887
0.0060903952 0.023299806 -0.005740515
-0.012143865 0.03224501 -0.0021485228
-0.0035908865 0.022911912 -0.0063059875
-0.011064759 0.026274003 -0.0042990334
-0.002463581 0.032499999 -0.0015326564
-0.0015761377 0.032499999 -0.0015734853
-0.0005618924 0.032499999 -0.0013992278
-0.01263238 0.022699667 -0.0068466896
0.0016699778 0.032499999 -0.0013557081
0.0026042848 0.032499999 -0.0014453189
0.0032542485 0.032499999 -0.0013612907
0.0042673601 0.032499999 -0.001331809
0.005410634 0.032499999 -0.0016015936
0.0063663656 0.032499999 -0.0016468256
0.004479527 0.026891733 -0.0049518324
0.0084290188 0.032499999 -0.0017209677
0.00030769658 0.032328345 -0.0027344653
0.0076127257 0.031891115 -0.0040824404
0.0085961688 0.02230194 -0.0030142281
0.012395127 0.032499999 -0.0016259614
0.013085585 0.032499999 -0.00137976
0.01432713 0.032499999 -0.0014941837
0.020929895 0.032499999 -0.0044679702
0.016590819 0.032499999 -0.0015336387
0.015454095 0.022037541 -0.0060357787
0.0099695651 0.028502082 -0.0043559144
0.019922419 0.032499999 -0.0012849979
0.020331325 0.032499999 -0.0017081965
0.021801775 0.032499999 -0.0015268449
0.022680309 0.032499999 -0.0014395727
0.023418611 0.032499999 -0.0014389459
0.024761356 0.024707031 -0.012417601
0.025505006 0.032499999 -0.0015162351
0.023883952 0.0028455122 -0.0093618501
-0.0091365865 0.0064825593 -0.0081687281
0.028537482 0.032499999 -0.0012727799
0.029578319 0.032499999 -0.0017734813
0.030470131 0.032499999 -0.001631481
0.031743195 0.032499999 -0.0013402142
0.020408003 0.020866072 -0.0067230621
0.033537444 0.032499999 -0.0016078085
0.034782931 0.032499999 -0.0016640121
0.016717091 0.021828473 -0.008484873
0.03623195 0.032499999 -0.0014665512
0.040867578 0.001977101 -0.010104236
0.038601499 0.032499999 -0.0015232541
0.039581247 0.032499999 -0.0013059764
0.040772278 0.032499999 -0.0013875719
0.039405145 0.01743228 -0.004444913
0.042378362 0.032499999 -0.0012812171
0.043532871 0.032499999 -0.0018026767
0.044378698 0.032499999 -0.0014706753
0.045301799 0.032499999 -0.0012682267
-0.045499999 -0.03229893 -0.00076856051
-0.044803672 -0.032499999 -0.00059397519
-0.025716538 -0.025186902 -0.0036124811
-0.042468604 -0.032499999 -0.00056658126
-0.00076418434 -0.0206575 -0.0069787814
-0.0406022 -0.032499999 -0.00062834116
-0.021081045 -0.032499999 -0.0016939008
-0.036002994 -0.031960033 -0.0020141883
-0.039531358 -0.018963341 -0.0010811844
-0.036692455 -0.032499999 -0.00057205372
-0.035571937 -0.032499999 -0.00068152475
-0.03454604 -0.032499999 -0.00023950203
-0.033274494 -0.032499999 -0.00066719763
-0.030906022 -0.025282074 -0.0041779503
-0.020978684 -0.028304484 -0.00067313272
-0.028420314 -0.017869502 -0.0018351919
-0.029690024 -0.032499999 -0.00060343556
-0.028194562 -0.032499999 -0.00073985243
-0.02752023 -0.032499999 -0.00058867317
-0.031923074 -0.030553672 -0.0066097295
-0.025511526 -0.032499999 -0.00055141933
-0.024384877 -0.032499999 -0.00055693032
-0.0060532908 -0.019808516 -0.00091430725
-0.019514943 -0.032499999 -0.0017441822
-0.021669893 -0.032499999 -0.00051952043
-0.020524962 -0.032499999 -0.00044969283
-0.019457143 -0.032499999 -0.00085619185
-0.022053707 -0.020821005 -0.0064003537
-0.017225707 -0.032499999 -0.0002733361
-0.016380863 -0.032499999 -0.00068981241
-0.015380358 -0.032499999 -8.2632527e-05
-0.013495953 -0.032499999 -0.00077424682
-0.012125438 -0.032499999 -0.0008549476
-0.01147733 -0.032499999 -0.00067347474
-0.0033474811 -0.024743913 -0.0063901083
-0.0096287597 -0.032499999 -0.00057094143
-0.0083746677 -0.032499999 -0.00054699223
-0.0072988756 -0.032499999 -0.002102646
-0.0064316122 -0.032499999 -0.00054401346
-0.015375381 -0.032499999 -0.0014041601
-0.0047215391 -0.032499999 -0.0005594492
-0.0034780297 -0.032499999 -0.00016584806
-0.0024650684 -0.032499999 -0.00062250625
-0.0014573472 -0.032499999 -0.00060173421
-0.00031322334 -0.032499999 -0.00068352063
0.00052412209 -0.032499999 -0.00032194593
0.0014598941 -0.032499999 -0.00028031119
0.0024509938 -0.032499999 -0.00035023372
0.0037498288 -0.032499999 -0.00029274973
0.0044191061 -0.032499999 -0.00023794515
0.0053777639 -0.032499999 -0.00061119505
0.00020057868 -0.030784 -0.0029150089
0.0077868765 -0.032499999 -0.0005281156
0.0094776684 -0.032499999 -0.00061309035
0.004242132 -0.031953622 -0.0035462712
0.011404326 -0.032499999 -0.00052137143
0.015253496 -0.024881849 -0.0035154626
0.013242281 -0.032499999 -0.00040871312
0.016268941 -0.025949959 -0.0030132665
0.010630034 -0.029506456 -0.0026889946
0.018379582 -0.026288653 -0.0040400946
0.017233286 -0.032499999 -0.00069922896
-0.0029842821 -0.0054951096 -0.0091353413
0.019539036 -0.032499999 -0.00035271235
0.020432705 -0.032499999 -0.00052750768
0.021406636 -0.032499999 -0.000340378
0.019878607 -0.018504411 -0.003888678
0.025278727 -0.032499999 -0.0025799223
0.018121956 -0.020783722 -0.0050228424
0.025581207 -0.032499999 -0.00054298015
0.026567407 -0.032499999 -0.00053888524
0.027204277 -0.032499999 -0.00049486244
0.018118124 -0.032499999 -0.0018416728
0.023481119 -0.028007435 -0.0027316685
0.030510526 -0.032499999 -0.00058963959
0.005910106 -0.031226655 -0.002703608
0.0054051224 -0.011937322 -0.0095836902
0.020510225 -0.030198021 -0.0041796174
0.034357414 -0.032499999 -0.00058990694
0.035560712 -0.032499999 -0.00047266184
0.036300596 -0.032499999 -0.00050840876
0.037381843 -0.032499999 -0.0003151102
-0.008936597 0.027688093 -0.015977411
0.039337203 -0.032499999 -0.00064475543
0.032298144 -0.025109747 -0.0040438036
0.041549768 -0.032499999 -0.00039880091
0.042589746 -0.032499999 -0.00076588662
0.043284461 -0.032499999 -0.00054672419
0.044211291 -0.032499999 -0.00090233923
0.045406085 -0.032397199 -0.00031399977
-0.045499999 -0.03135965 -0.00051567832
0.045499999 -0.0315185 -0.00026248512
-0.022749998 -0.018716844 -0.0045959889
0.045499999 -0.030474013 -0.00053515867
-0.045499999 -0.029165689 -0.00049117807
0.036075722 -0.02108469 -0.007252234
-0.039476227 -0.028744644 -0.0014712262
0.045499999 -0.02871345 -0.00037936599
-0.045499999 -0.027399911 -0.0006251767
0.045500003 -0.027499756 -0.00064142363
-0.045499999 -0.026539221 -0.00036366627
0.045500003 -0.026637331 -0.0006191245
-0.037854888 -0.017278524 -0.0013472156
0.016596099 -0.024578303 -0.0044474816
-0.033950672 -0.01958118 -0.0031219611
0.045499999 -0.024564382 -0.00020759169
-0.045398854 -0.024408979 -0.0013107738
0.045499999 -0.023718474 -0.00052306079
-0.042846229 -0.021266375 -0.0035174321
0.045499999 -0.022559777 -0.00031721877
-0.031519946 -0.019766575 -0.0035866275
0.019244321 -0.014977911 -0.0065047042
-0.038186517 -0.019585662 -0.0022246337
0.045500003 -0.0204322 -0.00043953513
-0.045499999 -0.019594237 -0.00032920251
0.045499999 -0.019715307 -0.00027542576
-0.038509756 -0.019346578 -0.0065827398
0.045500003 -0.018483354 -0.00058958807
-0.029049309 -0.016021712 -0.0047832835
0.030333333 -0.012636296 -0.0019046803
-0.045499999 -0.016562536 -0.00031355978
0.041014969 -0.0085272454 -0.0049016625
-0.03052666 -0.010546014 -0.004871659
0.040361371 -0.0088698892 -0.0014116246
-0.045499999 -0.014513507 -0.00051409903
0.016170835 -0.0087498007 -0.0064825062
-0.045500003 -0.013547677 -0.00076514855
0.040699854 -0.01630321 -0.0016657183
-0.045499995 -0.012488686 -0.00058290362
0.032648262 -0.007509829 -0.0029520809
-0.041822895 -0.0082916673 -0.0034785129
0.045500003 -0.011692642 -0.00042901607
-0.045500003 -0.010661108 -0.00041685894
0.045499999 -0.010939311 -0.0007456555
-0.035339698 0.00067816552 -0.0052774902
0.016756497 -0.016960274 -0.0064704772
-0.02474615 -0.0085315742 -0.0052446006
0.045499999 -0.0084037725 -0.00073538249
-0.045500003 -0.0074498965 -0.00054568582
0.045499999 -0.0075851763 -0.00031623407
-0.045499999 -0.0066534774 -0.00078540482
0.045500003 -0.0062193028 -0.00063283485
-0.045499999 -0.0056056855 -0.00064419524
0.045499999 -0.0056464761 -0.00054699311
-0.045500003 -0.0043831929 -0.00049113936
0.045500003 -0.00082763069 -0.0018745424
-0.045499999 -0.0035866261 -0.00040503405
0.045500003 -0.0038623817 -0.0027153727
-0.023932558 0.0094014881 -0.0047277501
0.030192539 0.0036240288 -0.0025895212
-0.018465044 0.008194766 -0.0032687902
0.045499999 -0.00149266 -0.00041885069
-0.040325865 -0.0085309548 -0.0031336695
0.045499999 -0.00036507534 -0.00033459192
-0.045500003 0.00048361666 -0.00062895531
0.045499999 0.00058527599 -0.00060574664
-0.045500003 0.001792719 -0.00035254212
0.045499999 0.0014618051 -0.00041025996
-0.045500003 0.0025025941 -0.00040669195
0.045500003 0.0024591431 -0.00044178893
-0.045499995 0.003705343 -0.00040978982
0.024015566 0.0080897994 -0.0096155908
-0.045500003 0.0045248112 -0.00064072671
0.03057467 0.0017638106 -0.0055290121
-0.045499999 0.0051941499 -0.00013592344
0.036311943 0.0012848255 -0.0040271748
-0.045500003 0.0064278105 -0.00043042982
0.045500003 0.0062225764 -0.00062093063
-0.045499999 0.0073062247 -0.00056954724
0.01382214 -0.0083269421 -0.0079522831
-0.034158047 0.0031317286 -0.0035323128
0.045499999 0.0084180105 -0.00063656166
-0.0036339536 0.0011545741 -0.0023226491
0.045500003 0.009823529 -0.00037728529
-0.045500003 0.010580867 -0.0004170321
0.045500003 0.010272237 -0.00043712778
-0.045499999 0.011635199 -0.00035217509
0.040971216 0.015038718 -0.0050322148
-0.044344261 0.009283605 -0.0030408732
0.045499999 0.012618456 -0.00060096366
-0.015166665 0.015566761 -0.0026005851
0.045500003 0.01347314 -0.00048419589
-0.022750001 0.014939288 -0.0026659484
0.045128252 0.014517649 -0.0042074439
-0.045499995 0.015773579 -0.00081655837
0.045499995 0.015659552 -0.00038489047
-0.045500003 0.016516699 -0.00058516511
0.038157504 0.001456358 -0.0094445702
-0.045500003 0.017608531 -0.00048698974
0.045500003 0.017684415 -0.00061265088
-0.045499995 0.018629212 -0.00037856837
0.045500003 0.018791534 -0.0003526051
-0.045500003 0.019286221 -0.00012176717
0.040224515 0.0022744674 -0.0060248296
-0.045499999 0.020526439 -0.0003101686
0.045500003 0.02022066 -0.00039268075
-0.045500003 0.021207018 -0.00058413355
0.045500003 0.021441223 -0.00074171671
-0.017507229 0.010483652 -0.0067450656
0.045500003 0.022535849 -0.000594098
-0.045499999 0.023188967 -9.5197e-05
0.024351183 0.026054068 -0.0050421432
-0.044465136 0.026300047 -0.0035224576
0.032470815 0.027250703 -0.0053675165
-0.045500003 0.025257308 -0.00043660076
0.045500003 0.02533149 -0.00095571368
-0.045499999 0.026636332 -0.00042479229
0.030073235 0.015672425 -0.0037159745
-0.045499999 0.027225927 -0.00028871046
0.036050815 0.023751453 -0.0065033818
-0.045499995 0.028538298 -0.00039839218
0.045500003 0.02857727 -0.00035766096
-0.045500003 0.029691052 -0.00049339142
0.03349999 0.018874222 -0.0039708307
-0.045500003 0.030384747 -0.00051993504
0.036369912 0.022365529 -0.0066741253
-0.012515767 0.032053053 -0.004859264
0.034282416 0.028954759 -0.0028277147
-0.032454632 0.0049060499 -0.0096060541
-0.03743048 0.019760873 -0.0052438118
-0.042504925 0.032499999 -0.00056951534
-0.041638523 0.032499999 -0.00057783694
-0.040528119 0.032499999 -0.00047347168
-0.030723974 0.023887379 -0.0039540729
-0.035869122 0.025196034 -0.0040427721
-0.011212334 0.026889529 -0.0063814297
-0.037943631 0.024497887 -0.0029953425
-0.03580628 0.032499999 -0.00063115859
-0.01836447 0.019507194 -0.005910038
-0.033922367 0.032499999 -0.00040063006
-0.032299094 0.032499999 -0.00054867205
0.024529632 -0.012743477 -0.0185
-0.030728826 0.032499999 -0.00067666866
-0.029748164 0.032499999 -0.00026665838
-0.028618617 0.032499999 -0.00060095167
-0.027622439 0.032499999 -0.00059210137
-0.026410233 0.032499999 -0.00081877946
-0.0017312213 0.012644569 -0.0016713147
-0.024509087 0.032499999 -0.00059759594
-0.016385535 0.032499999 -0.0016772258
-0.022467608 0.032499999 -0.00076319044
-0.021524876 0.032499999 -0.00066810328
-0.01989858 0.023848789 -0.0030596498
-0.019795947 0.025796294 -0.0015462076
-0.018612377 0.032499999 -0.0005114135
-0.017437201 0.032499999 -0.00069338497
-0.010874657 0.0195 -0.0020746321
-0.01532699 0.032499999 -0.00083476037
-0.014909794 0.029185673 -0.0030068301
-0.014039832 0.026173089 -0.0064576841
-0.012607016 0.032499999 -0.00067755679
-0.020051226 0.028002055 -0.0027533134
-0.0050346884 0.023956859 -0.0028305082
-0.0091219284 0.032499999 -0.0001941144
-0.0087072933 0.032499999 -0.00062131183
-0.0072072851 0.032499999 -0.00065096654
-0.014113346 0.020912142 -0.0029677923
-0.0056189983 0.032499999 -0.00067498744
-0.004169262 0.032499999 -0.00064976711
-0.0036173414 0.032499999 -0.00022963462
-0.0025612812 0.032499999 -0.0004044598
-0.0014874705 0.032499999 -0.00066753518
0.001523383 0.032499999 -0.00078847585
1.6449019e-05 0.032499999 -0.00075862743
0.0016160719 0.032499999 -0.00075053301
0.0024137895 0.032499999 -0.00054619805
0.0034181732 0.032499999 -0.00046075694
0.0044924561 0.032499999 -0.0006325405
0.005327709 0.032499999 -0.00075526629
-0.0071764006 0.028110227 -0.0067760274
0.007642719 0.032499999 -0.00043594334
0.0061412621 0.022432672 -0.004918796
0.015221785 0.031291556 -0.004154468
0.0085771084 0.0038370707 -0.0096532125
0.011345575 0.032499999 -0.00046528364
0.0096433805 0.024261668 -0.0051299981
0.013667217 0.032499999 -0.00096171722
0.014484166 0.032499999 -0.00066639186
0.015549544 0.032499999 -0.00095484965
0.016169941 0.032499999 -0.00071595609
0.01769812 0.032499999 -0.00049420772
0.018760083 0.032499999 -0.00046623545
0.019755047 0.032499999 -0.00068950746
0.02020767 0.032499999 -0.00033356808
0.021533361 0.032499999 -0.00037254766
0.022505572 0.032499999 -0.00047502946
0.023346337 0.032499999 -0.00063530914
0.024499685 0.032499999 -0.00048119825
0.025514245 0.032499999 -0.00063329004
0.025193505 0.032499999 -0.0018106792
0.027519774 0.032499999 -0.00065907836
0.030078385 0.024275253 -0.0036071495
0.020254759 0.030373599 -0.00072698388
0.030561183 0.032499999 -0.00027275336
0.03156653 0.032499999 -0.00044272159
0.032649036 0.032499999 -0.00048788972
0.033454966 0.032499999 -0.00058018899
0.03445686 0.032499999 -0.00032932809
0.035422735 0.032499999 -0.00044783979
0.03628125 0.032499999 -0.00028223451
0.037287723 0.032499999 -0.00075024989
0.017619763 0.02773091 -0.0017419141
0.02700614 0.026094254 -0.001855216
0.04051099 0.032499999 -0.00053895859
0.037977587 0.030802708 -0.0027914697
0.042709511 0.032499999 -0.00069596135
0.034748353 0.02801227 -0.004968131
0.045277935 0.032457333 -0.00047786441
-0.030174054 -0.032068323 -0.0010631842
-0.020817824 0.016646104 -0.0185
-0.043357424 -0.032499999 0.00035988246
-0.042320907 -0.032499999 0.00025655376
-0.041235924 -0.032499999 0.00069898111
-0.040543403 -0.032499999 0.00050436932
-0.018275388 -0.020754686 -0.0041194763
-0.019945962 -0.018382749 -0.0073686009
-0.037462186 -0.032499999 0.00057636574
-0.036445156 -0.032499999 0.00058523542
-0.034010127 -0.021666666 -0.00028153253
-0.034688365 -0.032499999 0.0005675896
-0.027074849 -0.017176282 -0.0060245944
-0.025689848 -0.029754698 -0.0039496208
-0.01068795 -0.010833333 -0.0021542918
-0.014139296 -0.016249999 -0.002934505
-0.016178157 -0.032499999 -0.00665941
-0.024146652 -0.027798446 -0.0043322388
-0.010275815 -0.023698725 -0.0042719627
-0.011459788 -0.016249999 0.00032267364
-0.018810574 -0.017226851 -0.0071557164
-0.024610789 -0.032499999 0.00047920478
-0.023678526 -0.032499999 0.00037678285
-0.022328731 -0.032499999 0.00072350696
-0.024706237 -0.032499999 -0.0018324323
-0.020510329 -0.032499999 0.00046253839
-0.019463079 -0.032499999 0.00060516712
-0.01854511 -0.032499999 0.00058617274
-0.017796339 -0.032499999 0.00074528251
-0.016212424 -0.032499999 0.00056784262
-0.015827576 -0.030804779 -0.0089692576
-0.016948039 -0.030060738 -0.0086309798
-0.013579267 -0.032499999 0.00040090986
-0.01491713 -0.019069007 -0.0069031506
-0.0057969503 -0.026192209 -0.0032905017
-0.010589821 -0.032499999 0.00061968667
-0.0094371391 -0.032499999 0.00064214645
-0.0085556637 -0.032499999 0.00072645058
-0.019257624 -0.010833333 -0.0027788987
-0.0066463235 -0.032499999 0.00087154825
-0.0055219103 -0.032499999 0.0003620747
0.0012721948 -0.022455417 -0.0012702211
-0.0021010134 -0.032499999 0.00028849952
-0.001189779 -0.032499999 0.00082891376
-0.00038852624 -0.032499999 0.00056447653
0.032490224 -0.015374317 -0.0185
-0.007832801 -0.02632601 -0.0013266121
0.0021991241 -0.032499999 0.00068365055
0.0039030407 -0.032499999 0.00036055391
0.004537629 -0.032499999 0.00052907947
0.0054993196 -0.032499999 0.00031372515
0.009636567 -0.025586911 -0.0058823433
0.007616872 -0.032499999 0.0002492262
0.0084096948 -0.032499999 0.00057140127
0.011851402 -0.0195 -0.0027332769
0.01053061 -0.032499999 0.00058292679
0.01154219 -0.032499999 0.00037171715
0.012369665 -0.032499999 0.00045087415
0.013023341 -0.032499999 0.00051566004
0.01452581 -0.032499999 0.00054436427
0.019371582 -0.030415144 -0.0026860589
0.0061814459 -0.032207906 -0.0041428697
0.01712928 -0.032499999 0.00071039813
0.018445695 -0.032499999 0.00032051504
0.028490083 -0.0054125674 -0.0090326872
0.010724727 -0.022797938 -0.0027178943
0.0081346892 -0.022880586 -0.00032549558
0.017015344 -0.019789547 -0.0058615408
0.031816937 0.00093812251 -0.011228142
0.021218661 -0.015542116 -0.014847735
0.035805002 0.0093943775 -0.011128612
0.026474146 -0.032499999 0.00024091649
0.027615361 -0.032499999 0.00044976233
0.028544977 -0.032499999 0.00073446165
0.029741211 -0.032499999 0.00036719127
0.03043161 -0.032499999 0.0002599908
0.028458452 -0.031175517 -0.0024766314
0.032357018 -0.032499999 0.00027776204
0.033413529 -0.032499999 0.00037352694
0.034264449 -0.032499999 0.00026997563
0.02187462 -0.024231022 -0.0033611164
0.036230184 -0.032499999 0.00021007285
0.017233146 -0.020896716 -0.0021213416
0.038691413 -0.032499999 0.00078851264
0.029090682 -0.032203898 -0.0043857768
0.035114311 -0.023214286 0.00023163093
0.019681323 -0.026810288 -0.00096759165
0.039959837 -0.023834292 -0.0031998679
0.037022807 -0.025725493 -0.0034354688
0.044672631 -0.032499999 0.00057347625
0.033316787 -0.029234929 -0.0033343427
-0.045500003 -0.031524263 0.0003242422
0.045500003 -0.031484962 0.00067225232
-0.045500003 -0.03061543 0.00053080422
0.0029764641 -0.0065207025 -0.016321812
-0.040205434 -0.008612453 -0.0045426693
0.045499999 -0.029730022 0.00032447907
-0.034595586 -0.019990277 -0.0058438457
0.045499999 -0.028668521 0.00054549373
-0.038501475 -0.02691352 -0.002637225
0.034667663 -0.015721848 -0.0012657823
-0.045499999 -0.026537189 0.00074965734
0.015602589 -0.019600313 -0.0090326965
-0.045500003 -0.025623281 0.00047855632
0.045499999 -0.025678635 0.00048946618
-0.045499999 -0.024704488 0.00041393479
0.045500003 -0.024484877 0.00046378118
-0.036531135 -0.0062224958 -0.0024083308
0.037056144 -0.0258114 -0.0020665603
-0.045499999 -0.022343632 0.00067811483
0.045500003 -0.022665612 0.00043723811
-0.045500003 -0.021652959 0.00050936214
0.041559182 -0.0235199 -0.0054835686
-0.035783045 -0.02058699 -0.0043044318
0.045500003 -0.020018719 0.00087865477
-0.023112586 -0.014392726 -0.0056930166
0.045499999 -0.019403577 0.00047757872
-0.045499995 -0.018567603 0.0007356804
0.010695267 -0.0047667609 -0.0063126083
-0.035540968 -0.011430434 -0.0043570851
0.045499999 -0.017156938 0.00055713463
-0.045499995 -0.016486198 0.00032079546
0.045499999 -0.016531471 0.00033337498
-0.045499995 -0.01548038 0.00045101374
0.045500003 -0.015667081 0.00032409304
-0.045165271 -0.0054741181 -0.0058037676
0.045499995 -0.01427847 0.00079940062
-0.024412122 -0.0020905603 -0.0059528551
0.045499999 -0.013171146 0.00024307007
-0.045499995 -0.012578666 0.00046002469
0.045500003 -0.012351187 0.0002557516
-0.045499999 -0.011707791 0.00038705114
0.031042717 -0.0068435622 -0.0024519768
-0.045401942 -0.0058171786 -0.0017355635
0.015521307 -0.018012591 -0.0054885419
-0.045500003 -0.0094762286 0.00062048004
0.045500003 -0.0096996985 0.00034595048
-0.045500003 -0.0085638231 0.00056479091
0.032499999 -0.012005179 -0.002020926
-0.025250636 -0.00069571147 -0.0041359961
0.045499999 -0.0074303667 0.00048763279
0 -0.018211532 0.00039176561
0.040634193 -0.0025408785 -0.002127677
-0.045499999 -0.005356662 0.00080103066
0.023772907 -0.0078566801 -0.0041351747
-0.034878682 -0.0097600771 -0.0070210667
0.045499999 -0.0046146382 0.00069884327
-0.025179466 -0.0133739 -0.0041196514
0.045500003 -0.0035637505 0.00018463377
-0.045500003 -0.0026799846 0.00059511873
0.045500003 -0.0027598441 0.00050850527
-0.045499999 -0.0016073608 0.0003454606
0.038571592 -0.0020690479 -0.00094867311
-0.037984718 -0.0069298856 -0.0006166072
0.036918089 -0.0050550946 -0.0010449424
-0.045499995 0.00040731896 0.00033023988
0.036840551 -0.0033660657 -0.006040297
-0.04092076 -0.00099188578 -0.002288088
0.0444449 0.0017692402 -0.0008365665
-0.045499999 0.002647531 0.00068152521
0.045499995 0.0024071424 0.00060527539
-0.045499999 0.002583839 -0.00096959103
0.045499999 0.0033368566 0.00029323943
-0.045499995 0.0043043261 0.00043754914
0.045499999 0.0041835341 0.00044390664
-0.045499995 0.0054285601 0.00039973133
0.034139335 0.0022807824 -0.0044850144
-0.032372203 -8.4964558e-05 -0.002169959
-0.045499995 0.0075420802 0.0004239158
0.045499999 0.0076427674 0.00034624949
-0.045499999 0.0083415657 0.00043652905
0.040305603 0.005304134 -0.0031991736
-0.045500003 0.0094077131 0.00054653443
0.045115955 0.0036585506 -0.005985151
-0.045499999 0.010459763 0.00040000363
0.045499999 0.010707232 0.00062044145
-0.045500003 0.011630785 0.00037704437
0.045499999 0.011675976 0.00018540048
-0.045500003 0.012104782 0.00055166171
0.043013714 0.013539962 -0.0018878808
-0.032466523 -0.0092799235 -0.0087356605
0.015166669 0.005009165 0.00016045105
-0.045499999 0.014352562 0.00039603279
0.045500003 0.013469135 -0.0015995509
-0.038710728 0.010374039 -0.0031671077
0.045500003 0.015452215 0.00049193233
-0.045500003 0.016523255 0.00050762622
0.045500003 0.016516017 0.00062993751
-0.015166664 0.015824428 -0.0015127163
0.016495699 0.0051041814 -0.0070440345
-0.045499995 0.018462608 0.00076781632
0.041819878 0.018596724 -0.0022517412
-0.045500003 0.019784801 0.00063502882
0.045499995 0.019656286 0.00047563072
-0.045500003 0.020511212 0.00047595554
0.045499995 0.020999178 0.00050497148
-0.03924061 0.014915327 -0.0020487132
0.045499999 0.021601133 0.00061667059
-0.024291802 -0.0019812169 -0.010254865
0.025361355 0.0027823837 -0.0077518849
-0.045499999 0.023384996 0.00033977581
0.045500003 0.023691472 0.00057158124
-0.045500003 0.024499763 0.00026042192
0.030395716 0.013462393 -0.0013488521
-0.045500003 0.025247142 0.00067972409
0.045500003 0.025444919 0.00043610847
-0.037143495 0.024267958 -0.0015803851
0.045499999 0.02657022 0.00013281801
-0.045500003 0.027476599 0.00046824163
0.034493651 0.027249753 -0.0022024619
-0.045499995 0.028464938 0.00050673401
0.038009368 0.0068370644 -0.0084876297
-0.045499999 0.02951806 0.00031746784
0.041744262 0.025722409 -0.0017155336
-0.045499999 0.030539876 0.0006412373
0.045499999 0.030377949 0.00056752155
-0.045499999 0.031449791 0.00065160287
0.045499995 0.031593785 0.0002429944
-0.034012791 0.019877218 -0.0043617873
-0.040218078 0.019038294 -0.0041818349
-0.043541625 0.032499999 0.00039255311
-0.038519599 0.01749669 -0.004480049
-0.03184773 0.026493233 -0.0017775381
-0.040550262 0.032499999 0.00069524668
-0.02798084 0.022411963 -0.0059912205
-0.028488629 0.023017943 -0.0055759065
-0.014016161 -0.0010839676 -0.012255883
-0.036830097 0.032499999 0.00072179548
-0.035432201 0.032499999 0.00056714413
-0.034241684 0.032499999 6.9657341e-05
-0.032604076 0.027009647 -0.0025251568
-0.027282298 0.024643091 -0.0024308735
-0.031258687 0.032499999 0.00016834133
-0.019656895 0.027230224 -0.0033235808
-0.02957689 0.032499999 0.00050186808
-0.028507996 0.032499999 0.00061452249
-0.027469072 0.032499999 0.00040945807
-0.026577145 0.032499999 0.00057159341
-0.0255243 0.032377936 -0.0018226174
-0.024511594 0.032499999 0.00036768956
-0.0066825626 0.030915018 -0.0060095638
-0.02315921 0.031859554 -0.0027582261
-0.010441927 0.021960933 0.00023038586
-0.018288998 0.015472441 -0.0058568679
-0.0195839 0.016800582 -0.0058491202
-0.014889953 0.023396812 -0.0048867743
-0.013764143 0.022615459 -0.0057738768
-0.016285313 0.032499999 0.00048724865
-0.01533761 0.032499999 0.00033147703
-0.0091794766 0.023181621 -0.0011273954
-0.0040858919 0.028483525 -0.0060832854
-0.012398406 0.032499999 0.00060123292
-0.011422636 0.032499999 0.00031307872
-0.0024948621 0.03195969 -0.00064908271
-0.0097990744 0.032499999 0.00070824381
0.00067004503 0.012881285 -0.0058441423
-0.0074224994 0.032499999 0.00037718602
-0.0063991114 0.032499999 0.00078785396
-0.0054164603 0.032499999 0.00043033081
-0.0045612119 0.032499999 0.00048155602
-0.003711164 0.032499999 0.00055225904
-0.0041292952 0.029195858 -0.0014284129
-0.0059646913 0.025570158 -0.003011026
0.0047790636 0.027452206 -0.0027841951
0.00063006446 0.032499999 0.00060339703
0.0059652748 0.028371651 -0.002480868
0.0026597551 0.032499999 0.0004039137
0.0073203659 0.024003552 -0.0042719524
0.0043322132 0.032499999 0.00048725383
0.0021006044 0.020994445 -0.0023541609
0.01078106 0.019436687 -0.0058160936
0.0076044556 0.030537359 -0.0042125648
0.0086855656 0.032499999 0.00044371933
