# .PCD v0.7 - Point Cloud Data file format
VERSION 0.7
FIELDS x y z
SIZE 4 4 4
TYPE F F F
COUNT 1 1 1
WIDTH 1256
HEIGHT 1
VIEWPOINT 0 0 0 1 0 0 0
POINTS 1256
DATA ascii
-0.025571715 0.011719709 -0.013932871
-0.02439972 0.011566272 -0.013954699
-0.023332853 0.011841367 -0.013915564
-0.022616204 0.01180192 -0.013921175
-0.021355551 0.01167741 -0.013938889
-0.020553702 0.011614657 -0.013947817
-0.019470055 0.011556213 -0.01395613
-0.018530063 0.011767512 -0.013926072
-0.029447181 0.005059462 -0.013804581
-0.016071865 0.011801048 -0.013921301
-0.015535727 0.011427145 -0.013974492
-0.014548563 0.011706173 -0.013934797
-0.012768805 0.011687399 -0.013937468
-0.011256214 0.01167025 -0.013939908
-0.010532603 0.011601878 -0.013949635
-0.013457646 0.0098371683 -0.014063612
-0.0085247811 0.011774279 -0.013925108
-0.002327933 0.0097926557 -0.013924512
-0.0063672992 0.011603328 -0.013949428
-0.0041220728 0.011573628 -0.013953653
-0.0034495678 0.01160832 -0.013948718
-0.0026852402 0.008095908 -0.01388636
-0.001272155 0.011614076 -0.013947899
-0.000639809 0.011559276 -0.013955696
0.00049403356 0.011662309 -0.013941038
-0.016904578 0.0087834653 -0.014212888
0.0022411086 0.011574132 -0.013953581
0.0033649616 0.011692407 -0.013936755
0.004470916 0.011712412 -0.013933909
0.0052363826 0.011704365 -0.013935054
0.0066222018 0.011559824 -0.013955617
0.0076244613 0.011810238 -0.013919992
0.0085037826 0.011550175 -0.013956989
0.009474976 0.011758778 -0.013927313
0.010562859 0.0114617 -0.013969576
0.01262321 0.01009129 -0.014070777
0.013864394 0.0073816534 -0.014271996
0.013411398 0.011966506 -0.013897761
0.014162846 0.011656851 -0.013941813
0.015559132 0.0118617 -0.013912672
0.016652688 0.011638654 -0.013944402
0.017682815 0.011594937 -0.013950621
0.018381815 0.011535365 -0.013959098
0.019816328 0.011690179 -0.013937073
0.020254795 0.011856412 -0.013913424
0.021452773 0.011782344 -0.01392396
0.02260885 0.011663219 -0.013940908
0.02357991 0.011668698 -0.013940128
0.0062086266 0.0083507029 -0.014121282
0.025481576 0.011407468 -0.01359987
-0.0723482 0.012550558 -0.01356422
-0.071495965 0.012428684 -0.013808258
-0.070401765 0.012530291 -0.013781291
-0.058905263 0.0087505737 -0.01406904
-0.068459414 0.012703716 -0.013743323
-0.067629561 0.012704083 -0.013741174
-0.066776477 0.012274193 -0.013843412
-0.065378778 0.012485631 -0.0137942
-0.064704575 0.012311633 -0.013835278
-0.063612662 0.012368514 -0.013819816
-0.055446476 0.0099508744 -0.013799878
-0.061477192 0.01274831 -0.013732149
-0.060342245 0.012356342 -0.013822623
-0.05922246 0.012358519 -0.013829809
-0.056501508 0.008820504 -0.013740137
-0.056245495 0.012406598 -0.013813338
-0.055334236 0.012439898 -0.013800094
-0.054534774 0.012710312 -0.013740778
-0.053399146 0.012550254 -0.013778346
-0.052591987 0.012493973 -0.013794474
-0.051571537 0.01244868 -0.013802155
-0.050499927 0.012392822 -0.013818304
-0.049392611 0.012396666 -0.013811874
-0.048437349 0.012497892 -0.013794891
-0.041432001 0.009670103 -0.013744659
-0.046240397 0.012305083 -0.013836248
-0.045727558 0.0124788 -0.01379778
-0.044391461 0.012480799 -0.013798432
-0.043262489 0.012477064 -0.013796329
-0.04275503 0.012673493 -0.013750895
-0.041418202 0.012624783 -0.013762047
-0.040544193 0.012542513 -0.01377939
-0.039375652 0.012597893 -0.013769189
-0.038419876 0.012535313 -0.013785514
-0.037548985 0.012593243 -0.013771001
-0.036494441 0.012539004 -0.013784471
-0.026798878 0.0080593294 -0.013800523
-0.034398131 0.012468377 -0.013801256
-0.033376433 0.01253566 -0.013783906
-0.032419082 0.012427873 -0.013805366
-0.052208353 0.0017353897 -0.013752093
-0.030421067 0.012611801 -0.013763784
-0.029541664 0.0123351 -0.013827111
-0.028732615 0.012646545 -0.013754765
-0.024144724 0.010468258 -0.014000627
-0.016613299 0.011101159 -0.013973981
-0.025578052 0.012709794 -0.013741799
-0.024665933 0.012339817 -0.013832989
-0.023572434 0.012491808 -0.013792863
-0.022688789 0.012566844 -0.013777616
-0.02163073 0.012701059 -0.013743989
-0.020370414 0.012663037 -0.013753515
-0.019446764 0.012346774 -0.013824218
-0.012293169 0.010184893 -0.013919109
-0.017540777 0.012517896 -0.013787981
-0.0044325832 0.0034703612 -0.01363848
-0.038439699 0.010525014 -0.014092973
-0.014568638 0.012698879 -0.013744534
-0.019352632 0.010131859 -0.01382989
-0.016903073 0.01134492 -0.013954369
-0.011412035 0.012510541 -0.013787772
-0.008889542 0.011928658 -0.013884543
-0.0094287097 0.012382962 -0.013818248
-0.0081930589 0.012582304 -0.013773742
-0.0076366691 0.012560569 -0.013778586
-0.0064731375 0.012687188 -0.013747464
-0.0016875803 0.0094507169 -0.013840463
-0.0045322389 0.012367695 -0.013824363
-0.0033842404 0.012557774 -0.013779888
-0.0023481755 0.012484691 -0.013791144
-0.0016561728 0.012681839 -0.013748804
-0.00071911409 0.012341495 -0.013833214
0.00059121067 0.012620764 -0.013764105
0.0014638439 0.01244414 -0.013807304
0.0019230042 0.0096459342 -0.013658846
-0.00025859481 0.011191801 -0.013940816
0.0046119415 0.012512961 -0.013790436
-0.0057374695 0.0073443009 -0.01384513
0.0064317016 0.012535574 -0.013781558
0.0075754346 0.012283055 -0.013837952
-0.004738953 0.011360455 -0.013964847
0.0094592003 0.012480612 -0.013794506
0.010646776 0.01273782 -0.013734778
0.011376294 0.012345005 -0.013833196
0.012744097 0.01261615 -0.013765262
0.01346517 0.012405104 -0.013814662
0.014541675 0.012576813 -0.013774692
0.015397398 0.012448996 -0.013803158
0.01662237 0.012381067 -0.013819518
0.01738405 0.012436206 -0.013806131
0.018835217 0.012814739 -0.013715507
0.012608725 0.01037416 -0.013893383
0.020548867 0.012571566 -0.013776433
0.021555714 0.012554925 -0.013780601
0.022454211 0.012599344 -0.013769472
0.023512887 0.012404769 -0.013810436
0.024640938 0.012400567 -0.013816302
0.025312297 0.012271669 -0.013666945
-0.07248693 0.013460967 -0.013281755
-0.071478233 0.013438379 -0.013559259
-0.070429429 0.013318199 -0.013589369
-0.070286632 0.0084334286 -0.013594413
-0.068497144 0.013463406 -0.013552989
-0.067516401 0.013288341 -0.01359685
-0.048467454 0.012557839 -0.013700031
-0.065501913 0.013688385 -0.013496622
-0.062893793 0.010007357 -0.013575939
-0.063572899 0.01376758 -0.013476779
-0.062564626 0.01341405 -0.013565354
-0.061479568 0.01362876 -0.013511561
-0.060577691 0.013681349 -0.013498385
-0.059494216 0.013479878 -0.013548861
-0.058332708 0.013516845 -0.013539599
-0.057439305 0.013393133 -0.013570595
-0.056942135 0.013610041 -0.013516249
-0.055411026 0.013447423 -0.013556993
-0.054350991 0.013243698 -0.013608035
-0.053506538 0.013558835 -0.01352908
-0.043442033 0.010190533 -0.013651566
-0.051595375 0.01352872 -0.013536625
-0.050360739 0.013656533 -0.013504602
-0.049563371 0.013394388 -0.013570281
-0.02848345 0.0094268844 -0.013651446
-0.047777571 0.013433468 -0.013560489
-0.046266384 0.013464201 -0.013552791
-0.045606464 0.013579665 -0.01352386
-0.044154014 0.013292784 -0.013595736
-0.043553181 0.013457924 -0.013554362
-0.042549893 0.013426976 -0.013562117
0.0026379905 -0.010670166 -0.014082181
-0.040462796 0.013388736 -0.013571697
-0.039541718 0.013544178 -0.013532751
-0.038308464 0.013402229 -0.013568316
-0.03736487 0.013702299 -0.013493136
-0.036532093 0.013591083 -0.013521
-0.035583302 0.013434674 -0.013560186
-0.034277469 0.013576105 -0.013524753
-0.034772456 0.011875873 -0.013653817
-0.032315072 0.013614699 -0.013515085
-0.03152027 0.013596537 -0.013519635
-0.030595399 0.013216089 -0.013614952
-0.029539891 0.01339633 -0.013569794
-0.028353419 0.013707199 -0.013491907
-0.027643513 0.013664491 -0.013502608
-0.026168367 0.01384254 -0.013458
-0.025317511 0.013507819 -0.013541861
-0.024370695 0.013828809 -0.013461439
-0.023218259 0.01343707 -0.013559586
-0.022345334 0.013465239 -0.01355253
-0.021319384 0.013810926 -0.01346592
-0.020144479 0.013334665 -0.013585243
-0.01936055 0.013471788 -0.013550889
-0.018641515 0.013751606 -0.013480782
-0.017449781 0.013494286 -0.013545251
-0.01633881 0.013411972 -0.013565875
-0.015502043 0.01330456 -0.013592785
-0.014479523 0.013499959 -0.013543828
-0.013452733 0.013716549 -0.013489565
-0.012605453 0.01325223 -0.013605896
-0.011521848 0.013568695 -0.013526608
-0.019080913 0.010619438 -0.013775669
-0.0082476456 0.012291784 -0.013685939
-0.0088139232 0.013427386 -0.013562012
-0.0075164661 0.013284452 -0.013597824
-0.006274458 0.013186564 -0.013622349
-0.0055302456 0.013711988 -0.013490709
-0.0045014117 0.013933592 -0.013435187
-0.0034496211 0.013179041 -0.013624234
-0.0025051285 0.013446618 -0.013557196
-0.0015076284 0.01363805 -0.013509233
-0.0059329681 0.013331629 -0.013584826
0.00030042158 0.013246643 -0.013607296
0.0016241986 0.013755365 -0.01347984
0.0027590012 0.013471809 -0.013550884
0.0035234734 0.013455071 -0.013555076
0.0044575441 0.013584955 -0.013522536
0.0053301137 0.013584694 -0.013522601
0.0064036236 0.013262358 -0.013603359
0.0073819389 0.013382545 -0.013573248
0.0085109221 0.013491552 -0.013545936
0.0096256994 0.013478326 -0.01354925
0.010749137 0.013474758 -0.013550144
0.011384016 0.013402968 -0.013568131
0.015703477 0.011909625 -0.013618171
0.013782109 0.013528042 -0.013536794
0.014551652 0.013465773 -0.013552396
-0.00033379422 0.010388151 -0.013843496
0.016470632 0.013453021 -0.013555591
0.017339664 0.013520675 -0.01353864
0.018786116 0.013517886 -0.013539338
0.019442121 0.013425427 -0.013562503
0.020672675 0.013468919 -0.013551607
0.021380214 0.013403344 -0.013568036
0.022677941 0.013392725 -0.013570697
0.02336674 0.013549976 -0.013531297
0.025166383 0.012127819 -0.013557147
0.025466604 0.013139974 -0.013215065
-0.072455749 0.014404102 -0.013208639
-0.070226625 0.011703862 -0.013476205
-0.060685311 0.012025725 -0.013421493
-0.069494836 0.014667904 -0.013251211
-0.068697438 0.014384116 -0.013322311
-0.067585446 0.014431426 -0.013310459
-0.066471517 0.014627613 -0.013261306
-0.065483764 0.014649021 -0.013255942
-0.064575441 0.014345389 -0.013332013
-0.063450389 0.01430128 -0.013343065
-0.057991307 0.01398079 -0.013400055
-0.031061448 0.0091600427 -0.013568814
-0.060498994 0.014596045 -0.013269215
-0.05954859 0.014481336 -0.013297955
-0.058728863 0.014228445 -0.013361314
-0.057710439 0.014331341 -0.013335533
-0.055727907 0.0084438613 -0.013269973
-0.055586644 0.014439261 -0.013308495
-0.055661395 0.0089946855 -0.013605131
-0.053616997 0.014409999 -0.013315827
-0.052556813 0.014408282 -0.013316258
-0.051399462 0.014564745 -0.013277057
-0.050615724 0.014585862 -0.013271766
-0.049656384 0.014418645 -0.013313661
-0.039397918 0.01072105 -0.013466949
-0.040847853 0.014402708 -0.013317653
-0.046500862 0.014187402 -0.013371596
-0.045371547 0.014580548 -0.013273097
-0.044732798 0.014354333 -0.013329773
-0.043482456 0.014473263 -0.013299976
-0.042606119 0.014466097 -0.013301772
-0.041524626 0.014656862 -0.013253978
-0.040616099 0.01469834 -0.013243585
-0.039406613 0.01428449 -0.013347273
-0.038560037 0.014548759 -0.013281061
-0.037374858 0.014436767 -0.013309121
-0.041924447 0.013752139 -0.013465405
-0.03552343 0.014564189 -0.013277194
-0.034678344 0.014529183 -0.013285968
-0.03350053 0.014378021 -0.013323839
-0.032383367 0.014609722 -0.013265788
-0.020860888 0.012160214 -0.013697194
-0.030573267 0.014647143 -0.013256411
-0.029752148 0.014365861 -0.013326886
-0.028389078 0.014340086 -0.013333342
-0.0273767 0.014572948 -0.013275001
-0.026439499 0.014734599 -0.013234501
-0.025385533 0.014360351 -0.013328265
-0.024478076 0.014533619 -0.013284855
-0.016494153 0.013317609 -0.013510803
-0.022285949 0.014338691 -0.013333693
-0.02139394 0.014588912 -0.013270999
-0.020201318 0.014563513 -0.013277364
-0.019412784 0.014496001 -0.01329428
-0.01873944 0.014248671 -0.013356246
-0.018890023 0.014301136 -0.013343102
-0.016729588 0.014158826 -0.013378756
-0.024732435 0.011571595 -0.013610032
-0.0241907 0.0087384107 -0.013298417
-0.013557715 0.014377464 -0.013323979
-0.01242494 0.014649527 -0.013255814
-0.011436064 0.01448078 -0.013298093
-0.010846777 0.014585748 -0.013271794
-0.0097783748 0.014634508 -0.013259578
-0.008472194 0.014581295 -0.01327291
-0.0076049319 0.014579038 -0.013273476
-0.0066950298 0.014585434 -0.013271873
-0.0053926236 0.014287085 -0.013346621
-0.0045806849 0.014443121 -0.013307529
-0.0034356397 0.014282888 -0.013347672
-0.0023906552 0.014331947 -0.013335382
-0.0013714992 0.014137431 -0.013384117
-0.00044981259 0.014649269 -0.013255878
0.00047174655 0.014409309 -0.013316
0.0016302066 0.014468374 -0.013301203
0.0023109447 0.014478372 -0.013298695
0.0036214958 0.014705332 -0.013241833
0.0046078013 0.014539457 -0.013283393
0.0054467977 0.014606792 -0.013266521
0.0064456239 0.014610514 -0.013265589
0.0075432304 0.014681427 -0.013247823
0.0083028236 0.014224883 -0.013362207
0.0096963439 0.014284589 -0.013347247
0.010516723 0.014555931 -0.013279266
0.0069246227 0.013974964 -0.013404841
0.012448151 0.01453734 -0.013283922
-0.0052304459 0.003274583 -0.013438956
0.01463317 0.014597765 -0.013268784
0.015611487 0.014490443 -0.013295672
0.011171657 0.014387107 -0.013321562
0.0096999845 0.011832622 -0.013326493
0.018795377 0.014592809 -0.013270025
0.019523229 0.014710922 -0.013240433
0.020373434 0.014567728 -0.013276309
0.021762693 0.014367105 -0.013326573
0.022303414 0.014564479 -0.013277124
0.023519848 0.014445839 -0.013306848
0.024447793 0.014447711 -0.013306378
0.025312174 0.014373653 -0.013162087
-0.072219834 0.015375434 -0.013073944
-0.07163962 0.015482355 -0.013047156
-0.070358388 0.015289014 -0.013095595
-0.065206379 0.011293853 -0.013326685
-0.068471096 0.015343778 -0.013081876
-0.067223147 0.015440855 -0.013057552
-0.066438928 0.015296808 -0.013093645
-0.065146446 0.015407342 -0.013065949
-0.064606741 0.015403938 -0.013066802
-0.063355625 0.015648071 -0.013005637
-0.062486902 0.01547003 -0.013050243
-0.061402157 0.015290869 -0.013095132
-0.060004242 0.0017446228 -0.013518006
-0.059511192 0.015438905 -0.013058042
-0.058484904 0.015446503 -0.013056139
-0.046778142 0.010233521 -0.013332677
-0.056588352 0.01531601 -0.013088833
-0.055383064 0.015185535 -0.013121522
-0.054452382 0.015223277 -0.013112066
-0.053455137 0.015315326 -0.013089004
-0.052568369 0.015279386 -0.013098008
-0.051652607 0.015324511 -0.013086703
-0.050454151 0.015192783 -0.013119707
-0.049399693 0.015293924 -0.013094366
-0.048246078 0.015377089 -0.01307353
-0.047138225 0.015450283 -0.013055192
-0.046566006 0.01538983 -0.013070337
-0.04522761 0.01514637 -0.013131335
-0.044603661 0.015238492 -0.013108254
-0.043674812 0.015307562 -0.01309095
-0.043884158 0.012717331 -0.013303711
-0.041229337 0.015052149 -0.013154941
-0.040634409 0.015361272 -0.013077493
-0.039422575 0.01501757 -0.013163604
-0.038255576 0.015113443 -0.013139584
-0.037507065 0.015495156 -0.013043948
-0.036807392 0.015277267 -0.013098539
-0.026346697 0.014395948 -0.013278839
-0.034345422 0.015053084 -0.013154706
-0.033760589 0.015228778 -0.013110688
-0.03254262 0.015364429 -0.0130767
-0.031517863 0.015475255 -0.013048935
-0.034804482 0.0079187881 -0.013154018
-0.018328026 0.013465844 -0.013166681
-0.02853894 0.015455225 -0.013053954
-0.02760445 0.015382189 -0.013072252
-0.026483258 0.015210398 -0.013115293
-0.025517955 0.015426556 -0.013061138
-0.024402764 0.01551122 -0.013039924
-0.02347686 0.015429246 -0.013060463
-0.0039609624 0.0084462482 -0.013087457
-0.021507761 0.015289554 -0.013095461
-0.01324988 0.0078525608 -0.013172329
-0.016302651 0.010159221 -0.013091452
-0.018509766 0.015252182 -0.013104825
-0.017547134 0.01528285 -0.013097141
-0.016317908 0.015450271 -0.013055196
-0.015397835 0.015252201 -0.013104819
-0.014413085 0.015361978 -0.013077316
-0.013424611 0.015202144 -0.013117361
-0.012576765 0.015341519 -0.013082443
-0.011415217 0.015436872 -0.013058553
-0.010680788 0.015270049 -0.013100347
-0.0094096214 0.015119258 -0.013138128
-0.016830159 0.011398035 -0.013683225
-0.0078365868 0.015269874 -0.013100392
-0.0053968104 0.01520485 -0.013116684
-0.004812758 0.015308118 -0.01309081
-0.0040586921 0.0071784141 -0.013427848
-0.002458398 0.01544303 -0.013057008
-0.0017282376 0.015405274 -0.013066468
-0.00021038577 0.015113162 -0.013139655
0.00067781413 0.01531337 -0.013089495
0.001369101 0.015196622 -0.013118744
0.0024316683 0.01516884 -0.013125705
0.003511094 0.015396289 -0.01306872
0.0044151754 0.015362251 -0.013077248
-0.0053330511 0.010973901 -0.013399988
0.0076978537 0.01524853 -0.013105739
0.0084427241 0.015613606 -0.013014272
0.009490666 0.015314911 -0.013089108
0.010461092 0.015351325 -0.013079984
0.011314009 0.015432921 -0.013059542
0.012721166 0.01526693 -0.013101129
0.013689306 0.015194937 -0.013119167
-0.0058341133 0.013475355 -0.013506869
0.015518093 0.015426884 -0.013061054
0.016470227 0.015042149 -0.013157446
0.01750347 0.015192163 -0.013119861
0.01849086 0.015389884 -0.013070324
0.019604517 0.015399975 -0.013067796
0.020641705 0.015416164 -0.01306374
0.0080096144 0.0075489576 -0.013603966
0.022552516 0.015259195 -0.013103067
0.023368955 0.015349982 -0.013080321
0.024536949 0.015470028 -0.013050245
0.025240667 0.015234658 -0.013078015
-0.033960447 -0.019003343 -0.012000713
-0.0305604 -0.019004591 -0.012000233
0.024798097 -0.019001417 -0.012001455
-0.072403118 -0.018744966 -0.012048694
-0.071468033 -0.018482208 -0.012201151
-0.070542745 -0.018403148 -0.012231559
-0.069373861 -0.018441472 -0.012216819
-0.06840314 -0.01845352 -0.012212185
-0.067550533 -0.01847755 -0.012202944
-0.066359937 -0.018637825 -0.012141298
-0.061773635 -0.014644099 -0.01289643
-0.064419858 -0.018510602 -0.01219023
-0.059401702 -0.017658664 -0.012371879
-0.031781826 -0.0097670099 -0.012847286
-0.061607983 -0.018693602 -0.012119846
-0.06018142 -0.018460479 -0.012209508
-0.053755373 -0.015044679 -0.012370465
-0.058602799 -0.018519018 -0.012186993
-0.057421271 -0.018519532 -0.012186795
-0.056440085 -0.018370925 -0.012243953
-0.05554571 -0.018430974 -0.012220858
-0.054372821 -0.018477609 -0.012202921
-0.053585675 -0.018576704 -0.012164807
-0.052257624 -0.018662699 -0.012131732
-0.051425323 -0.018726075 -0.012107355
-0.05024188 -0.018490693 -0.012197888
-0.049302876 -0.018505149 -0.012192328
-0.048553746 -0.018469958 -0.012205862
-0.047598705 -0.018399842 -0.01223283
-0.04629999 -0.018464914 -0.012207803
-0.045418493 -0.018650312 -0.012136496
-0.02722938 -0.0076147625 -0.013457144
-0.042425036 -0.012680185 -0.012579041
-0.042448577 -0.018475579 -0.012203702
-0.041497201 -0.018554403 -0.012173385
-0.033166952 -0.01745761 -0.012271557
-0.011249096 -0.013081133 -0.013317641
-0.038515165 -0.018571373 -0.012166857
-0.037586767 -0.018437462 -0.012218361
-0.040987052 -0.013460398 -0.012424784
-0.035504404 -0.01856444 -0.012169522
-0.034681138 -0.018574927 -0.01216549
-0.033392452 -0.018538937 -0.012179332
-0.032244522 -0.015358794 -0.012629021
-0.031879026 -0.018501148 -0.012193866
-0.030406609 -0.018202838 -0.0123086
-0.02939513 -0.018734381 -0.012104161
-0.014210103 -0.015564272 -0.012847573
-0.027191758 -0.018483274 -0.012200741
-0.026572412 -0.018604554 -0.012154096
-0.030804332 -0.018408258 -0.012223884
-0.024416672 -0.018711265 -0.012113052
-0.023578344 -0.018474979 -0.012203931
-0.022764903 -0.018502165 -0.012193474
-0.021415193 -0.018455124 -0.012211568
-0.020422166 -0.018535361 -0.012180708
-0.021613251 -0.013993633 -0.012782789
-0.018486664 -0.018474847 -0.012203982
-0.012453201 -0.017283713 -0.012464995
-0.016266745 -0.018490642 -0.012197907
-0.015490974 -0.018533681 -0.012181353
-0.014441657 -0.018547708 -0.012175959
-0.013473932 -0.018599717 -0.012155957
-0.012429031 -0.018646751 -0.012137866
-0.01127341 -0.018826919 -0.01206857
-0.010583575 -0.018433182 -0.012220008
-0.0094765695 -0.018491318 -0.012197646
-0.0086085452 -0.018377153 -0.012241556
-0.0078443717 -0.018465592 -0.012207542
-0.0063623474 -0.018428819 -0.012221685
-0.0053350027 -0.018432042 -0.012220446
-0.0045638732 -0.018481845 -0.012201291
-0.0036425709 -0.018363051 -0.01224698
-0.002516099 -0.018283091 -0.012277735
-0.0014721089 -0.018262064 -0.012285822
-0.0009021936 -0.018454356 -0.012211864
-0.0084795998 -0.017511055 -0.01246184
0.0014940784 -0.01872021 -0.012109613
0.004475852 -0.017592637 -0.012440071
0.0035831379 -0.018546954 -0.012176249
0.0048067882 -0.018558424 -0.012171837
0.0074249981 -0.013657347 -0.012319932
0.0062515549 -0.01827623 -0.012280373
0.0073056165 -0.018517926 -0.012187413
0.0084490217 -0.01849669 -0.012195581
0.0094815595 -0.018632477 -0.012143355
0.010587277 -0.018617533 -0.012149104
0.011152821 -0.018887427 -0.012045299
0.012533278 -0.01845607 -0.012211204
0.010388101 -0.015657695 -0.012439298
0.014491523 -0.018508827 -0.012190912
0.015344556 -0.018605577 -0.012153702
0.016604576 -0.018670127 -0.012128875
0.01720237 -0.018348407 -0.012252614
0.018514359 -0.018468913 -0.012206264
0.019454887 -0.018152999 -0.012327771
0.0094272317 -0.015544116 -0.012756954
0.021431638 -0.018485619 -0.01219984
0.022479065 -0.018493598 -0.012196771
0.023729688 -0.018416073 -0.012226588
0.024473209 -0.018393088 -0.012235426
0.025223194 -0.018215854 -0.012303594
-0.07231617 -0.017384466 -0.012462661
-0.06522879 -0.0092676822 -0.013299569
-0.070583679 -0.017743882 -0.012480549
-0.06957037 -0.017622668 -0.012505561
-0.0681298 -0.017514439 -0.012534237
-0.067573503 -0.017409002 -0.01256445
-0.066549748 -0.017411655 -0.012563786
-0.065664656 -0.017394533 -0.012565226
-0.064550593 -0.017749673 -0.012478508
-0.063553862 -0.017529959 -0.012528325
-0.062747233 -0.017529462 -0.01253427
-0.061718579 -0.017363448 -0.012575863
-0.058992784 -0.013748309 -0.012737736
-0.060702112 -0.012723905 -0.01313729
-0.051459014 -0.015242986 -0.012707544
-0.057462323 -0.017634729 -0.012500236
-0.056590639 -0.017621942 -0.012503522
-0.055457316 -0.017412901 -0.012559252
-0.054625154 -0.01737467 -0.012572551
-0.053715572 -0.017380733 -0.012571532
-0.052535266 -0.017751237 -0.012468828
-0.051586993 -0.017497282 -0.012540422
-0.050485764 -0.017483547 -0.012543718
-0.0493894 -0.017708771 -0.012485342
-0.048300773 -0.017418776 -0.012561021
-0.04731667 -0.017429432 -0.012559331
-0.037341885 -0.01578733 -0.012721297
-0.044958223 -0.014263044 -0.012878456
-0.035609514 -0.015475262 -0.012720213
-0.043627448 -0.017382173 -0.012570417
-0.042514291 -0.017532 -0.012529996
-0.036810979 -0.012737847 -0.012641701
-0.040515799 -0.017610958 -0.012511533
-0.039690547 -0.017774818 -0.012463741
-0.038338162 -0.017526275 -0.012531871
-0.037514679 -0.01753374 -0.012527531
-0.03332179 -0.012270155 -0.01291378
-0.035506401 -0.017678045 -0.012495966
-0.034801073 -0.017616257 -0.012511821
-0.033573575 -0.01751985 -0.012536678
-0.032444265 -0.017659271 -0.012497756
-0.033431798 -0.011964638 -0.012807644
-0.027793745 -0.015504137 -0.01291619
-0.029431403 -0.017582877 -0.012514452
-0.02835075 -0.017577773 -0.012513429
-0.027652368 -0.017283862 -0.012595803
-0.026407534 -0.017501531 -0.012540037
-0.025488783 -0.017303763 -0.012590817
-0.024344444 -0.017387852 -0.012569748
-0.023499489 -0.017468587 -0.012544733
-0.022625137 -0.017539393 -0.012529939
-0.021537248 -0.017586915 -0.012513264
-0.009634247 -0.014012351 -0.013123257
-0.019462967 -0.017595982 -0.012510496
-0.018661842 -0.017580915 -0.012521378
-0.017532606 -0.017792564 -0.012454885
-0.016481739 -0.01758676 -0.012514185
-0.015472214 -0.017333753 -0.012583302
-0.014404031 -0.017348297 -0.012579247
0.0060294867 -0.013305366 -0.013433566
-0.012521285 -0.017632395 -0.012501125
-0.011524718 -0.017576572 -0.012518689
-0.0056052003 -0.015484854 -0.012942852
-0.00040081795 -0.010605356 -0.013361539
-0.0085454108 -0.017576138 -0.012522575
-0.0074786898 -0.017379932 -0.012571733
-0.0064956336 -0.01747746 -0.012545275
-0.0056454428 -0.017406221 -0.012564525
-0.0045357835 -0.017364817 -0.01257552
0.0060315724 -0.013672349 -0.012814331
-0.0024604432 -0.017622221 -0.012506562
-0.0015712396 -0.017586421 -0.012515488
-0.00068781851 -0.017378375 -0.012567194
0.00035006987 -0.017524576 -0.012535493
-0.00064361456 -0.016782669 -0.012708313
0.0023610406 -0.017538313 -0.012530006
0.0037096653 -0.017608728 -0.012509991
0.0045315148 -0.017587395 -0.012512374
0.0054793861 -0.017397981 -0.012562248
0.006741113 -0.017986909 -0.012391651
0.0074676401 -0.017430237 -0.012557933
0.0086115533 -0.017741403 -0.012475341
0.0096801268 -0.017573237 -0.012518509
0.010487992 -0.017665707 -0.012499738
-0.0063660471 -0.011456793 -0.013376202
0.012268494 -0.017629001 -0.012500854
0.01344225 -0.017475527 -0.012547782
0.01452719 -0.017653696 -0.012495007
0.015508477 -0.017477864 -0.012544043
0.016150106 -0.017919747 -0.012417482
0.017729498 -0.017561376 -0.012526273
0.0185208 -0.017409882 -0.012561812
0.019270711 -0.017461872 -0.012547265
0.020487094 -0.017381307 -0.01257139
0.021530438 -0.017508829 -0.012536333
0.022505982 -0.017452918 -0.012551689
0.02361236 -0.01738053 -0.012567414
0.024419714 -0.017554168 -0.012521775
0.025244799 -0.013736671 -0.012946947
-0.055515967 -0.017023262 -0.012336834
-0.071780302 -0.016447064 -0.012805455
-0.07058911 -0.016635796 -0.012758171
-0.067064539 -0.0119755 -0.013023323
-0.068589948 -0.016375724 -0.01282333
-0.067610264 -0.016352482 -0.012829153
-0.066677094 -0.016341969 -0.012831785
-0.065281563 -0.016436052 -0.012808215
-0.064499848 -0.016589811 -0.012769692
-0.063648708 -0.016638735 -0.012757435
0.030905502 0.0032938437 -0.013834
-0.061429374 -0.016579181 -0.012772355
-0.060522407 -0.016817302 -0.012712697
-0.059457567 -0.016332719 -0.012834105
-0.058427371 -0.016403073 -0.012816478
-0.058305245 -0.0021385518 -0.013294011
-0.056302689 -0.016367268 -0.012825448
-0.055583317 -0.016481472 -0.012796836
-0.054397315 -0.016630435 -0.012759515
-0.053633165 -0.016639443 -0.012757256
-0.052511998 -0.016233269 -0.012859021
-0.051324189 -0.0166068 -0.012765436
-0.050034296 -0.011141993 -0.013313696
-0.031806178 -0.015671592 -0.012999744
-0.04865063 -0.012911325 -0.012839803
-0.047278494 -0.016752802 -0.012728856
-0.046531748 -0.016678719 -0.012747416
-0.04544811 -0.016270651 -0.012849654
-0.044585686 -0.016488809 -0.012794997
-0.043392286 -0.016551955 -0.012779176
-0.042470723 -0.016366433 -0.012825657
-0.041820563 -0.016510105 -0.012789662
-0.040652871 -0.01647716 -0.012797915
-0.039271906 -0.016566575 -0.012775514
-0.038566239 -0.016264945 -0.012851084
-0.028094437 -0.016009925 -0.012914978
-0.03671594 -0.016570035 -0.012774646
-0.0345947 -0.016890857 -0.012694268
-0.03335169 -0.01663853 -0.012757486
-0.032616887 -0.016399272 -0.012817429
-0.031205952 -0.016449902 -0.012804745
-0.03059623 -0.01631109 -0.012839522
-0.032503571 -0.015526067 -0.012994319
-0.028550882 -0.016466089 -0.012800688
-0.02748023 -0.016412806 -0.012814039
-0.026494522 -0.016598709 -0.012767462
-0.025743334 -0.016532734 -0.012783992
-0.02775657 -0.014055943 -0.012912652
-0.023236563 -0.016445607 -0.012805821
-0.022687664 -0.016448528 -0.012805088
-0.02366494 -0.015976593 -0.012923328
-0.023612117 -0.0081390105 -0.013302634
-0.019612253 -0.016311135 -0.012839511
-0.017266033 -0.014954196 -0.013087706
-0.017892377 -0.016476968 -0.012797963
-0.016752802 -0.016405631 -0.012815839
-0.015551604 -0.016033035 -0.012909187
-0.014491794 -0.016356904 -0.012828045
-0.013499642 -0.016277537 -0.01284793
-0.0096348496 -0.015842037 -0.012937916
-0.012596683 -0.014329004 -0.013003075
-0.010424327 -0.016697003 -0.012742836
-0.0095759118 -0.016686732 -0.012745409
-0.0084605739 -0.016570549 -0.012774517
-0.0075462284 -0.016548958 -0.012779928
-0.0066511133 -0.016683221 -0.012746288
-0.0055274833 -0.016465914 -0.012800734
-0.0042793327 -0.016332926 -0.012834053
-0.0035475506 -0.016645933 -0.012755631
-0.032549772 -0.013564738 -0.013464319
-0.0013691203 -0.016452916 -0.012803989
-0.00032839758 -0.016657026 -0.012752852
0.00061737793 -0.016437422 -0.012807871
0.0013190921 -0.016310345 -0.01283971
-0.001016964 -0.012132475 -0.013478089
0.0032838031 -0.016408555 -0.012815103
0.00435295 -0.01672961 -0.012734666
0.0054821181 -0.01662585 -0.012760664
0.0065366179 -0.016437588 -0.01280783
0.007458936 -0.016485035 -0.012795943
0.0084559219 -0.016747851 -0.012730096
0.0092626 -0.016725728 -0.012735639
0.01052832 -0.016676266 -0.012748032
0.011632213 -0.016539674 -0.012782253
0.012315479 -0.016463026 -0.012801456
0.013350137 -0.016551815 -0.012779212
0.014340119 -0.016327482 -0.012835416
0.015474245 -0.016536795 -0.012782974
0.011026861 -0.016375033 -0.012818848
0.017631263 -0.016737942 -0.012732579
0.018794833 -0.016367141 -0.012825481
0.019393075 -0.016532028 -0.01278417
0.020415094 -0.016293347 -0.012843968
0.018971132 -0.016048329 -0.012900416
0.020514054 -0.015741784 -0.012982159
0.023316726 -0.016645094 -0.012755841
0.024602318 -0.016630346 -0.012759536
0.025289545 -0.016474763 -0.012458972
-0.072499998 -0.015552959 -0.01236235
-0.071310446 -0.015724793 -0.012986414
-0.070584059 -0.015825314 -0.01296123
-0.069383338 -0.015864942 -0.012951302
-0.043477938 -0.011685235 -0.013426515
-0.065493509 -0.015895752 -0.012943583
-0.064938694 -0.015700487 -0.012992505
-0.063017733 -0.015958829 -0.012927779
-0.062386606 -0.01572492 -0.012986382
-0.061544538 -0.015809648 -0.012965156
-0.060265176 -0.015827199 -0.012960758
-0.056649368 -0.00054968306 -0.014974642
-0.026083082 -0.014731323 -0.012892167
-0.037348028 -0.003649564 -0.01483164
-0.056980133 -0.015729651 -0.012985198
-0.054780465 -0.01568526 -0.01299632
-0.053504102 -0.01578686 -0.012970864
-0.05274456 -0.015812321 -0.012964485
-0.051372729 -0.01590945 -0.012940152
-0.048230667 -0.015834838 -0.012958843
-0.04709949 -0.01585288 -0.012954324
-0.046927746 -0.015919887 -0.012937536
-0.045472994 -0.015793273 -0.012969259
-0.04445643 -0.015913924 -0.01293903
-0.043938521 -0.015935041 -0.012933739
-0.042465445 -0.015737735 -0.012983172
-0.039463509 -0.015824556 -0.012961419
-0.037984964 -0.015683293 -0.012996812
-0.036149066 -0.0158154 -0.012963714
-0.035075177 -0.015689369 -0.01299529
-0.034939509 -0.015825421 -0.012961205
-0.033349663 -0.015797276 -0.012968255
-0.032548375 -0.015717153 -0.012988329
-0.031475179 -0.015977249 -0.012923164
-0.029747449 -0.015792837 -0.012969367
-0.028601563 -0.015887639 -0.012945617
-0.026512166 -0.015848707 -0.01295537
-0.025409384 -0.015995394 -0.012918618
-0.024392476 -0.015878126 -0.012947999
-0.023484753 -0.0158647 -0.012951363
-0.022331949 -0.01596147 -0.012927117
-0.021424761 -0.015743708 -0.012981677
-0.02058709 -0.015859358 -0.0129527
-0.019470284 -0.015878413 -0.012947927
-0.018509563 -0.015936784 -0.012933303
-0.017383087 -0.015909567 -0.012940122
-0.016684335 -0.015769223 -0.012975283
-0.015516415 -0.015825884 -0.012961088
-0.014009234 -0.015772022 -0.012974583
-0.013794553 -0.015724681 -0.012986443
-0.011724129 -0.015860677 -0.012952372
-0.010742773 -0.015955053 -0.012928725
-0.0091076754 -0.01592399 -0.012936508
-0.0080857407 -0.015867079 -0.012950767
-0.0074920221 -0.015823772 -0.012961618
-0.0067520514 -0.01588813 -0.012945492
-0.0058673518 -0.015827354 -0.012960719
-0.0034496058 -0.015772305 -0.012974512
-0.0015953684 -0.014950164 -0.013180492
-0.0015653279 -0.015944045 -0.012931483
0.0007783575 -0.015870046 -0.012950023
0.001915534 -0.015810892 -0.012964843
0.0096369628 -0.01309208 -0.013182925
0.0048788902 -0.015838668 -0.012957884
0.0056735212 -0.015902545 -0.01294188
0.0066368422 -0.015841059 -0.012957285
0.0078327227 -0.015842173 -0.012957005
0.0094894618 -0.015888408 -0.012945423
0.010845879 -0.015865088 -0.012951266
0.011407666 -0.015888907 -0.012945298
0.012878954 -0.01575762 -0.012978191
0.015277512 -0.015807386 -0.012965722
0.016212087 -0.015925795 -0.012936055
0.019568358 -0.015764419 -0.012976488
0.020143382 -0.015929047 -0.012935241
0.021683961 -0.01592603 -0.012935998
0.022740889 -0.01580362 -0.012966666
0.02434822 -0.015917191 -0.01293821
0.025320506 -0.01548622 -0.012754139
-0.07249999 -0.014590777 -0.012639311
0.025530366 -0.014637091 -0.012555027
-0.071484767 -0.0087479306 -0.01280748
0.025685508 -0.013529847 -0.012450418
-0.07249999 -0.012376192 -0.012251254
0.025816645 -0.01268357 -0.012371285
-0.072500005 -0.011576809 -0.012597146
0.025904447 -0.011575459 -0.012462327
0.026047839 -0.01147685 -0.012150308
-0.072499998 -0.01047775 -0.01228768
0.025846839 -0.010536565 -0.012863424
0.026082121 -0.010351885 -0.0123545
-0.072500005 -0.0094575016 -0.012465837
0.025984686 -0.0095762238 -0.012834552
0.017624997 -0.010987433 -0.01249901
-0.072499998 -0.0085238284 -0.012504183
0.026231444 -0.0084539615 -0.012627715
-0.072500005 -0.0072396547 -0.012610711
0.021802127 -0.0060777231 -0.012482213
0.027643282 -0.0074441861 -0.012103853
0.0074513792 0.00023227092 -0.012549321
0.029491743 -0.0072971913 -0.012182738
0.030436996 -0.0073190415 -0.012171012
0.03180873 -0.0073213312 -0.012169783
0.03258742 -0.0073301988 -0.012165024
0.033683412 -0.0071944222 -0.012237888
0.034805223 -0.0071334094 -0.01227063
0.035405967 -0.0072987373 -0.012181907
0.036570217 -0.0073329285 -0.01216356
0.037303541 -0.0073237112 -0.012168506
0.028596792 -0.0022342685 -0.012717769
0.039632246 -0.0073832567 -0.012136551
0.040418483 -0.0074190232 -0.012117358
0.041472122 -0.0073642475 -0.012146752
0.034335997 -0.0065891119 -0.013095757
0.043544512 -0.0073707388 -0.012143268
0.044159263 -0.0073261326 -0.012167206
0.045281943 -0.0076021138 -0.012019102
-0.072499998 -0.0062820017 -0.012648446
0.026648335 -0.0066268914 -0.012614952
0.027353834 -0.0063961754 -0.012666265
0.015222837 -0.0031336383 -0.012803034
0.021454817 -0.0065927217 -0.012846078
0.017665677 -0.0059686624 -0.012983561
0.031519577 -0.006300875 -0.012717405
0.014565162 -0.0047761062 -0.01306582
0.031225948 -0.002384837 -0.012722488
0.034542974 -0.006295634 -0.012720219
0.021039806 -0.0059058936 -0.012949579
0.03652937 -0.0064518191 -0.012636402
0.037420664 -0.0065251403 -0.012597055
0.025125206 -0.0032150322 -0.012956063
0.039437249 -0.0065403064 -0.012588916
0.040191945 -0.0065683639 -0.012573859
0.041563671 -0.006550177 -0.01258362
0.042742223 -0.0062636128 -0.012737403
0.043555837 -0.0063792397 -0.012675353
0.044435274 -0.006509399 -0.012605501
0.025380153 -0.0089522004 -0.012367512
-0.072499998 -0.0053105052 -0.012372804
0.02672198 -0.0058807256 -0.012946621
0.027840205 -0.0059390604 -0.012911572
0.029650373 -0.0059124744 -0.012925839
0.031602588 -0.005901481 -0.01293174
0.032147653 -0.005859707 -0.012954157
0.035643533 -0.0058567473 -0.012955745
0.037565622 -0.0057880883 -0.012992591
0.038738489 -0.0058928132 -0.012936391
0.039812949 -0.0059552179 -0.012902902
0.042817999 -0.0059219808 -0.012920736
0.043486122 -0.0059063258 -0.01292914
0.045438763 -0.0055271927 -0.012476754
-0.072499998 -0.0045261802 -0.012471112
0.0454702 -0.004480327 -0.012514624
-0.057034023 -0.0041211592 -0.012939882
0.045502983 -0.0036923718 -0.012381784
-0.072500005 -0.0024344206 -0.012368752
0.045531139 -0.0023849211 -0.012431344
-0.072499998 -0.0016875599 -0.012455413
0.045525055 -0.0016236336 -0.012585363
-0.072499998 -0.00062532764 -0.012358094
0.045550823 -0.00038599299 -0.012425816
-0.072499998 0.00057228695 -0.012623032
0.030910132 -0.0018213344 -0.012704982
-0.072499998 0.0014254563 -0.012317231
0.03304939 0.0035088428 -0.012508792
-0.072500005 0.0025603585 -0.012517837
0.041727975 -0.00022571426 -0.012752997
-0.072499998 0.0036603196 -0.012422168
0.045499202 0.0035263733 -0.012475276
-0.072499998 0.0045663542 -0.012548781
0.045471609 0.0043432368 -0.012540276
-0.07249999 0.0054615662 -0.012409308
0.026718244 0.0059071314 -0.012928706
0.027619042 0.0059091505 -0.012927623
-0.02448245 -0.01060125 -0.014091985
0.031808231 0.0059643155 -0.012898019
0.032352731 0.0059762914 -0.012891592
0.035454966 0.0059926221 -0.012882829
0.038473457 0.0058686296 -0.012949368
0.039480656 0.0057752831 -0.012999463
0.041694596 0.0059105223 -0.012926887
0.043377481 0.0058312789 -0.012969412
0.044199862 0.0059711291 -0.012894362
0.045396864 0.0056205522 -0.012585457
-0.072500005 0.0065950276 -0.01253592
0.026476612 0.0067234267 -0.012849978
0.02745216 0.0065364838 -0.012590967
0.015148683 0.0066466862 -0.012974901
0.029601179 0.006566504 -0.012574857
0.030568266 0.0064849178 -0.01261864
0.031476445 0.0065495889 -0.012583936
0.032547355 0.0066613113 -0.012523981
0.033444967 0.0064597204 -0.012632161
0.034461156 0.0062666829 -0.012735756
0.035370421 0.0063797943 -0.012675053
0.036383234 0.0064776368 -0.012622546
0.037726879 0.0064341575 -0.012645881
0.011628364 0.0067994068 -0.013153497
0.027062913 0.004856905 -0.012960285
0.03875963 0.0053771888 -0.012676641
0.030017558 -0.00044317008 -0.01354075
0.023616537 0.0017243503 -0.012783132
0.043259483 0.0064034993 -0.012662333
0.044593208 0.0064877719 -0.012617108
0.04540332 0.0064967666 -0.012398509
-0.072500005 0.0075950222 -0.012532401
0.026451344 0.0077054463 -0.01243593
0.027711686 0.0072892988 -0.012186973
0.028350417 0.0072387792 -0.012214083
0.029285192 0.0075456225 -0.012049418
0.030303907 0.0073786294 -0.012139034
0.031635873 0.0074619763 -0.012094307
0.032273997 0.0072720172 -0.012196247
0.033593088 0.0070876218 -0.012295201
0.034450613 0.0074197953 -0.012116943
0.035473555 0.0073794052 -0.012138617
0.036628813 0.0072296262 -0.012218997
0.037789762 0.0071958173 -0.012237139
0.03886731 0.0073870639 -0.012134507
0.039451305 0.0073822401 -0.012137097
0.040642057 0.0072942115 -0.012184336
0.041352894 0.0072000041 -0.012234895
0.042156562 0.0073553654 -0.012151519
0.043611571 0.0072964812 -0.012183119
0.0447134 0.0074311886 -0.012110829
0.01433885 0.002440236 -0.013457322
-0.072499998 0.0084424261 -0.012444132
0.026336491 0.0084972754 -0.012524383
-0.07249999 0.0095335096 -0.012340582
0.026169922 0.0097996909 -0.01257001
-0.072500005 0.010375749 -0.012771881
0.026182726 0.010360394 -0.012214549
-0.072499998 0.011397965 -0.012359144
0.025890259 0.011452192 -0.012855642
0.026051303 0.011301431 -0.012294329
-0.072499998 0.012664314 -0.012562065
0.02589279 0.01236538 -0.012438826
-0.072499998 0.013255766 -0.012628761
0.025769364 0.013538008 -0.012309659
-0.072499998 0.014489332 -0.012222795
0.025577389 0.014452321 -0.012600833
-0.070026182 0.0145434 -0.012730538
-0.071629256 0.015783262 -0.012971766
-0.070648417 0.015794843 -0.012968864
-0.069324806 0.01576959 -0.012975192
-0.0687446 0.01591241 -0.01293941
-0.067559823 0.015863867 -0.01295157
-0.066462845 0.01576505 -0.01297633
-0.065729849 0.015793096 -0.012969302
-0.064352453 0.015747758 -0.012980661
-0.062547363 0.015878521 -0.0129479
-0.061081246 0.015903017 -0.012941763
-0.060586479 0.015681757 -0.012997197
-0.0591808 0.015952658 -0.012929326
-0.058513511 0.015880112 -0.012947502
-0.05743923 0.015729137 -0.012985327
-0.056418672 0.015853832 -0.012954085
-0.053054787 0.015817719 -0.012963133
-0.052238416 0.015884601 -0.012946377
-0.051484503 0.015871359 -0.012949695
-0.050493591 0.015768671 -0.012975423
-0.049847081 0.01584154 -0.012957163
-0.048354156 0.015853554 -0.012954156
-0.047670852 0.015761156 -0.012977305
-0.023259543 0.009527633 -0.013603347
-0.045714464 0.015752178 -0.012979554
-0.044522978 0.015828066 -0.01296054
-0.043509405 0.015781214 -0.012972279
-0.042376667 0.015818078 -0.012963044
-0.041524686 0.015761316 -0.012977265
-0.040608957 0.015806105 -0.012966044
-0.039279673 0.015745288 -0.012981281
-0.038555771 0.015865475 -0.012951169
-0.037853807 0.015736209 -0.012983555
-0.035068166 0.015837539 -0.012958167
-0.034927256 0.01597546 -0.012923613
-0.033489861 0.015885808 -0.012946075
-0.031481676 0.015803931 -0.012966587
-0.030494606 0.015923031 -0.012936749
-0.029458106 0.015798343 -0.012967988
-0.028472712 0.015928119 -0.012935474
-0.0097957123 0.011705249 -0.013576846
-0.026679544 0.015835436 -0.012958694
-0.024669699 0.015876053 -0.012948519
-0.023356317 0.015785346 -0.012971244
-0.022997838 0.015935061 -0.012933735
-0.021674268 0.015854357 -0.012953954
-0.020391244 0.015842842 -0.012956839
-0.019063894 0.015794717 -0.012968897
-0.01811292 0.015958078 -0.012927966
-0.016436841 0.015775349 -0.012973748
-0.013303707 0.015903942 -0.012941531
-0.012753562 0.015880689 -0.012947356
-0.010257193 0.011482756 -0.013313613
-0.010254839 0.015986584 -0.012920825
-0.0090835132 0.015831511 -0.012959678
-0.0073815351 0.015921751 -0.012937069
-0.0064711301 0.015773464 -0.01297422
-0.0050792787 0.015961327 -0.012927154
-0.0046748715 0.015763607 -0.012976691
-0.0037412513 0.01584485 -0.012956335
-0.0025614495 0.015891764 -0.012944581
-0.0014745351 0.015770823 -0.012974882
-0.00058561878 0.015833607 -0.012959152
0.00032158321 0.015813358 -0.012964226
0.027597634 0.00056222378 -0.014211426
0.0023120064 0.015808189 -0.012965521
0.0037581492 0.015911743 -0.012939577
0.004394596 0.015814662 -0.012963899
0.0062415684 0.015833993 -0.012959056
0.0073633622 0.015763067 -0.012976826
0.0081939697 0.01571798 -0.012988122
-0.0012588094 0.011724752 -0.013452794
0.013665847 0.015840052 -0.012957538
0.014107741 0.015784537 -0.012971446
0.015310292 0.015905596 -0.012941116
0.016332822 0.015807852 -0.012965606
0.017085081 0.015894774 -0.012943828
0.01812705 0.015732672 -0.012984441
0.020663332 0.015763633 -0.012976684
0.021382552 0.015878066 -0.012948014
0.022227762 0.015803859 -0.012966605
0.023884691 0.015844295 -0.012956474
0.024877643 0.015875461 -0.012948666
0.023813704 0.012491842 -0.01271823
-0.064202979 0.015582242 -0.012742279
-0.071654417 0.016145021 -0.012881131
-0.070471346 0.016141573 -0.012881994
-0.066220701 0.014803573 -0.013079179
-0.06861987 0.016585011 -0.012770895
-0.067440972 0.016518114 -0.012787654
-0.066634506 0.016755963 -0.012728063
-0.065459102 0.01676397 -0.012726056
-0.064549327 0.016606411 -0.012765532
-0.063479722 0.016500261 -0.012792128
-0.057267286 0.015397872 -0.012964009
-0.061583459 0.016496593 -0.012793046
-0.046369132 0.010998555 -0.012718323
-0.059283376 0.016601622 -0.012766733
-0.058696475 0.016603531 -0.012766254
-0.057256978 0.016077332 -0.01289809
-0.056550242 0.016555736 -0.012778229
-0.058706563 0.016097872 -0.012892944
-0.054657262 0.016704459 -0.012740968
-0.053586338 0.016362421 -0.012826663
-0.052646365 0.016417844 -0.012812776
-0.050661318 0.0121308 -0.01297948
-0.050076887 0.013234271 -0.012982893
-0.049335144 0.016495824 -0.012793239
-0.048485558 0.01629182 -0.012844351
-0.047375008 0.016789109 -0.012719759
-0.045049883 0.015116972 -0.013048524
-0.045338362 0.016469266 -0.012799894
-0.044577528 0.016560316 -0.012777082
-0.043660086 0.016519342 -0.012787348
-0.042404372 0.016475454 -0.012798343
-0.034218494 0.013578718 -0.013108967
-0.040817216 0.016484788 -0.012796005
-0.041448664 0.011304636 -0.013088572
-0.038451869 0.016347574 -0.012830381
-0.037673898 0.016620031 -0.012762121
-0.035730075 0.012250368 -0.01333841
-0.035316065 0.016913619 -0.012688564
-0.02771901 0.011726141 -0.01331585
-0.033586562 0.016581984 -0.012771654
-0.032560676 0.016518369 -0.012787591
-0.031687558 0.016732087 -0.012734045
-0.030491849 0.016535424 -0.012783318
-0.029379949 0.016344722 -0.012831097
-0.028273322 0.016622974 -0.012761382
-0.027636012 0.016445776 -0.012805778
-0.026563089 0.016663028 -0.012751348
-0.025295878 0.016489089 -0.012794927
-0.024657853 0.016599465 -0.012767273
-0.023553545 0.016633987 -0.012758624
-0.022712816 0.016483191 -0.012796404
-0.02133703 0.016683066 -0.012746327
-0.02049993 0.01659002 -0.012769639
-0.024903223 0.012535987 -0.012817685
-0.018420771 0.016494267 -0.01279363
-0.017557679 0.016544629 -0.012781011
-0.016472939 0.016725065 -0.012735805
-0.015819261 0.016788216 -0.012719983
-0.014422217 0.016354032 -0.012828765
-0.013798751 0.016261198 -0.012852023
-0.015595633 0.014153532 -0.012958623
-0.011650774 0.016533878 -0.012783706
-0.010473604 0.016482312 -0.012796625
-0.0095126359 0.016394988 -0.012818503
-0.0054056365 0.012313521 -0.013063354
-0.0066392785 0.014300153 -0.013083925
-0.0064271707 0.016750857 -0.012729343
-0.0058179828 0.016538452 -0.012782561
-0.0045354879 0.016340105 -0.012832253
-0.0034035072 0.016682114 -0.012746567
-0.0023863576 0.016577624 -0.012772745
-0.0014732701 0.016699359 -0.012742247
-0.00041988306 0.016577709 -0.012772724
0.00058323267 0.016380377 -0.012822163
0.0015061218 0.016471833 -0.01279925
0.0023272801 0.016301058 -0.012842037
0.0036270705 0.016558023 -0.012777656
0.0043215468 0.016557483 -0.01277779
0.005562997 0.016462417 -0.012801608
0.0065002711 0.016530678 -0.012784506
0.0076012136 0.01673159 -0.01273417
0.0085285576 0.016352449 -0.01282916
0.0093848547 0.016526192 -0.012785631
0.010466607 0.016315149 -0.012838505
0.011357089 0.016579567 -0.012772258
0.012360469 0.016564235 -0.012776099
0.013452428 0.016387604 -0.012820354
0.014596136 0.016485939 -0.012795717
0.015690487 0.016518774 -0.01278749
0.016424133 0.016424088 -0.012811213
0.017587861 0.016510159 -0.012789648
0.012173544 0.010040763 -0.013269874
0.019458473 0.0164006 -0.012817096
0.020414095 0.016615838 -0.012763171
0.021596327 0.016646115 -0.012755586
0.0055875904 0.0087553225 -0.012909201
0.017037744 0.014521926 -0.012867554
0.024479089 0.01637993 -0.012822276
0.025394499 0.016641472 -0.012348538
-0.057367139 0.011560349 -0.013421383
-0.071436286 0.017334539 -0.012583106
-0.070531718 0.01734334 -0.012580901
-0.066257872 0.01651793 -0.012727438
-0.068440758 0.017415721 -0.012562538
-0.067560285 0.01762465 -0.01249793
-0.066639796 0.017706206 -0.012476115
-0.064238131 0.015293635 -0.012959586
-0.064901136 0.017235583 -0.012607899
-0.063851014 0.017484101 -0.012545635
-0.062643029 0.017492082 -0.01253921
-0.061413344 0.017365914 -0.012575246
-0.058746874 0.010554276 -0.012525133
-0.059489854 0.017536921 -0.012524295
-0.058561038 0.017568884 -0.012524227
-0.05756519 0.0176061 -0.012506708
-0.056416385 0.017510388 -0.012539048
-0.055388778 0.017332435 -0.012582729
-0.054323342 0.017677383 -0.012486195
-0.053389885 0.01726404 -0.012600768
-0.052532639 0.017571181 -0.012519598
-0.051389128 0.017680049 -0.012493904
-0.050593249 0.017864402 -0.01243412
-0.049461693 0.017319916 -0.01258677
-0.048408337 0.017541397 -0.01252667
-0.031916838 0.0072391327 -0.012883579
-0.046447959 0.017492661 -0.012540769
-0.045506071 0.017468298 -0.012548732
-0.044568706 0.017740477 -0.012475321
-0.043670978 0.017530395 -0.012532151
-0.042414315 0.017525744 -0.012530182
-0.041435152 0.017481215 -0.012541324
-0.040442869 0.017539281 -0.012519276
-0.039654549 0.017287359 -0.012594556
-0.038572825 0.017525794 -0.012528215
-0.037274737 0.01721135 -0.01261397
-0.036437143 0.017484656 -0.012543069
-0.035433363 0.017687934 -0.012489485
-0.034240462 0.017326668 -0.012585078
-0.033369102 0.017639359 -0.01250031
-0.034303039 0.016815895 -0.012712943
-0.031659964 0.017458042 -0.012552163
-0.030840522 0.017437886 -0.012557213
-0.029695174 0.017468255 -0.012549604
-0.028327499 0.017569771 -0.012519939
-0.02746195 0.017436577 -0.012553765
-0.026390409 0.017261906 -0.012601304
-0.025729014 0.017482733 -0.012545857
-0.024598815 0.017446993 -0.012552192
-0.023457823 0.017563628 -0.012518927
-0.022488078 0.017352253 -0.012578668
-0.02147623 0.017404554 -0.012565564
-0.020393226 0.017594574 -0.012515112
-0.019440003 0.017473552 -0.012548278
-0.018553954 0.017454391 -0.012546264
-0.017526092 0.017510934 -0.012537517
-0.017028699 0.0168765 -0.012670035
-0.015524451 0.017566856 -0.012520908
-0.014368283 0.017516725 -0.012534923
-0.013144083 0.017138358 -0.012632257
-0.011478957 0.017589804 -0.012514236
-0.010448398 0.017282844 -0.012596058
-0.0094923712 0.017607644 -0.01250611
-0.0087582134 0.017647229 -0.012504764
-0.0075410441 0.017628212 -0.012500186
-0.0061475225 0.017608467 -0.012514474
-0.01439975 0.016674906 -0.012735034
-0.0045032031 0.017486703 -0.01254334
-0.02657605 0.01678236 -0.012721449
-0.0024856264 0.017526764 -0.012534945
-0.0014765853 0.017511182 -0.012538606
-0.00060500455 0.01767583 -0.012493099
0.00045896083 0.01747193 -0.012544499
0.0012604839 0.017710829 -0.012480915
0.0026962366 0.017612221 -0.012513534
0.0034125657 0.017409286 -0.012564378
0.0046139117 0.017547598 -0.01252727
0.0053308038 0.017477155 -0.012546346
0.0063104043 0.017322186 -0.012586201
0.0077015031 0.017502358 -0.012535905
0.007675095 0.012831959 -0.012984522
0.0074995668 0.016300598 -0.012749718
0.010721324 0.017251272 -0.012603967
0.011769384 0.01758749 -0.012518121
0.012471098 0.017437736 -0.01255725
0.013523308 0.017497553 -0.012539121
0.0098419785 0.01182792 -0.01264889
0.015501859 0.017619023 -0.012509338
0.01613141 0.017497268 -0.012541651
0.01759479 0.017745707 -0.01246825
