# .PCD v0.7 - Point Cloud Data file format
VERSION 0.7
FIELDS x y z
SIZE 4 4 4
TYPE F F F
COUNT 1 1 1
WIDTH 1290
HEIGHT 1
VIEWPOINT 0 0 0 1 0 0 0
POINTS 1290
DATA ascii
0.054685239 0.0089702317 -0.011597676
-0.064999998 0.013378039 -0.0055772667
0.055501591 0.0084086312 -0.0071533984
0.037214603 0.0090403771 -0.010697395
-0.064999998 0.015508056 -0.0058678593
0.064999998 0.015376842 -0.005692211
-0.064999998 0.016536003 -0.0057370462
0.061737537 0.012439336 -0.0076050526
-0.064999998 0.017653674 -0.0053991796
0.064999998 0.017479045 -0.0053911125
-0.024093516 0.018317958 -0.0086239381
0.04996435 0.010701047 -0.0069546765
-0.038281348 0.0080279438 -0.012465052
0.064999998 0.019631956 -0.005522999
-0.064999998 0.020616196 -0.0055982554
0.023817187 0.014356564 -0.0093722707
-0.064999998 0.021603933 -0.0051312102
0.064999998 0.021364041 -0.0054300856
-0.064999998 0.015858151 -0.00698154
0.027284788 -0.00077568088 -0.011629519
-0.064999998 0.023340289 -0.0055407463
0.064999998 0.023551688 -0.0057274322
-0.040382475 0.024988588 -0.0076452373
0.064999998 0.024258582 -0.0055300947
-0.064999998 0.0196801 -0.0062288395
0.064999998 0.025379088 -0.0057414728
-0.060090829 0.016913975 -0.0077954889
0.064999998 0.0264834 -0.0055737505
-0.039580368 0.0096745277 -0.011457345
-0.038342521 0.0097558042 -0.0095888646
-0.062701866 0.0275 -0.0058637303
-0.06153154 0.027500002 -0.0054134191
-0.060190625 0.0275 -0.0053912485
-0.05904232 0.0275 -0.0059057195
-0.058323011 0.0275 -0.0055429577
-0.058214676 0.023971325 -0.0063616759
-0.058099419 0.01845823 -0.0071703168
-0.055507012 0.027500002 -0.0056188977
-0.054500002 0.0275 -0.0054479344
-0.024740571 0.018225681 -0.0095266523
-0.052487731 0.0275 -0.0054909065
-0.027077094 0.026874101 -0.0076879459
-0.047409739 0.027482841 -0.0084013892
-0.049731843 0.0275 -0.0055532772
-0.048463091 0.0275 -0.00538478
-0.0053542978 -0.01972026 -0.0175
-0.046582643 0.0275 -0.0054624323
-0.025738781 0.027500002 -0.0073616798
-0.044270985 0.0275 -0.0052872859
-0.043448035 0.0275 -0.0059135575
-0.042433277 0.0275 -0.0057341689
-0.04141032 0.027500004 -0.0055237832
-0.0055028847 0.015100627 -0.0056678182
-0.035671528 0.021503905 -0.0072912378
-0.018815011 0.0275 -0.0087960167
-0.01761765 0.026274063 -0.0084202616
-0.036696348 0.027500002 -0.0052646799
-0.035365619 0.027500004 -0.0053532603
-0.034610298 0.0275 -0.0056251176
-0.019822573 0.018605048 -0.01069284
-0.032595962 0.0275 -0.0056274491
-0.031737994 0.0275 -0.0052632596
-0.030362025 0.027500004 -0.0054151085
-0.029029412 0.0275 -0.0053473427
-0.028164014 0.0275 -0.0052665747
-0.027535453 0.0275 -0.0053852685
-0.026254516 0.0275 -0.0057542427
-0.025610765 0.027500004 -0.0055308254
-0.01730248 0.020625001 -0.0058974838
-0.022615002 0.0275 -0.0054980479
-0.021578677 0.0275 -0.0056184414
-0.020696016 0.0275 -0.0051909811
-0.019737776 0.0275 -0.0051007345
-0.018621299 0.0275 -0.0054873726
-0.017681533 0.0275 -0.0056427587
-0.021717098 0.018541805 -0.0062656589
-0.011158737 0.026155232 -0.0080141043
-0.014667334 0.0275 -0.0052024415
-0.021402976 0.0275 -0.0085504968
-0.011515273 0.027500002 -0.0053727617
-0.0055291979 0.019188618 -0.0094328225
-0.010637445 0.027500002 -0.0064357584
-0.0082501462 0.0275 -0.0052384022
-0.021311911 0.014261168 -0.0083879642
-0.0064009507 0.0275 -0.0056264857
-0.0055687837 0.0275 -0.005686935
-0.0042490121 0.0275 -0.0055042668
-0.0037103295 0.0275 -0.0055212947
-0.0033094874 0.022707282 -0.0069311243
-0.0018440641 0.0275 -0.0055505522
-0.0024005829 0.0165 -0.0078616589
-0.014919607 0.013076597 -0.009277015
0.0011526407 0.0275 -0.0054461528
0.0025426657 0.027500002 -0.0053571775
0.0034194342 0.027500002 -0.0055166609
0.0056696152 0.0275 -0.0053563449
-0.029161602 0.013041805 -0.011135756
0.01229932 0.018864211 -0.0093248067
0.0041261115 0.027500002 -0.0070603434
0.0094661163 0.0275 -0.0054570702
0.010637465 0.027500002 -0.0056844084
0.011227228 0.0275 -0.0053535476
0.01250723 0.0275 -0.0057134815
0.013387634 0.0275 -0.0054483209
0.022681318 0.013009502 -0.011259231
0.015609455 0.027500002 -0.0055245273
-0.0095579661 0.020893153 -0.0094781257
0.01729838 0.0275 -0.0056701479
0.0039011526 0.019826883 -0.0093848854
0.0054739406 0.011128852 -0.013594869
0.023019273 0.018333334 -0.0066970801
0.021181053 0.0275 -0.0054928991
0.022310115 0.0275 -0.0058800029
0.023521133 0.0275 -0.0053903968
0.02440111 0.0275 -0.0058086291
0.025525568 0.0275 -0.0054430766
0.026446521 0.0275 -0.0053487984
0.0071732905 0.015717138 -0.0076709688
0.028523542 0.0275 -0.0052476344
0.022614185 0.01375 -0.0074503436
0.0071838396 0.021819644 -0.0084171817
0.031412981 0.0275 -0.0056392839
0.01493185 0.012021054 -0.0096644051
0.022696087 0.021896426 -0.007338651
0.034408849 0.0275 -0.0055197603
0.035548508 0.0275 -0.0055507482
0.036619529 0.0275 -0.0055278386
0.037050828 0.0275 -0.0058136256
0.037254356 0.018954162 -0.0063630827
0.040135749 0.018552266 -0.011413819
0.040857639 0.0275 -0.0057087475
0.041077781 0.0275 -0.0056613935
0.042578459 0.0275 -0.0055907853
0.043463685 0.027500002 -0.0055935695
0.044338912 0.0275 -0.0056026196
0.046518996 0.027500002 -0.0054735783
0.047628518 0.0275 -0.0059146276
0.048660636 0.0275 -0.0056278668
0.049311746 0.0275 -0.0053673722
0.054151885 0.022777114 -0.0076090051
0.051514845 0.0275 -0.0052622855
0.029177988 0.01375 -0.0063598184
0.042156063 0.026413351 -0.0065834569
0.051235236 0.02622772 -0.0086139441
0.056541961 0.0275 -0.005436366
0.057283014 0.0275 -0.005439111
0.057876468 0.016701497 -0.0089797098
0.028424561 0.0275 -0.007045906
0.060572486 0.0275 -0.005273995
0.033011537 0.0275 -0.0081692953
0.062585734 0.027500002 -0.005330801
0.063014746 0.0275 -0.0054347995
0.05023054 0.018164709 -0.0076849298
-0.041774631 -0.027448177 -0.0056714416
-0.027260557 -0.0275 -0.0063713728
-0.062583469 -0.027500002 -0.0045232386
-0.061412241 -0.0275 -0.0042842845
-0.060456004 -0.0275 -0.0046482892
-0.059493326 -0.0275 -0.0047693928
-0.02567229 -0.017875552 -0.0086961426
-0.046531241 -0.023962779 -0.0056724288
-0.056948692 -0.0275 -0.0044573238
-0.055050272 -0.0275 -0.0044478877
-0.054667797 -0.027500002 -0.0045696995
-0.053418525 -0.027500002 -0.0045284755
-0.052708473 -0.027500004 -0.0045163454
-0.051941797 -0.0275 -0.0044925837
-0.050454158 -0.027500002 -0.0043646791
-0.0498113 -0.0275 -0.0045123519
-0.048272859 -0.0275 -0.0046632113
-0.047485404 -0.027500002 -0.0045833038
-0.046586819 -0.0275 -0.0044089016
-0.045909692 -0.0275 -0.0040720943
-0.018188266 -0.01375 -0.0056202328
-0.043475941 -0.0275 -0.004405817
-0.0097935898 -0.010800152 -0.0085670203
-0.041500088 -0.027500002 -0.0043694824
-0.040213123 -0.0275 -0.0047685439
-0.03949213 -0.0275 -0.0045750802
-0.038401619 -0.0275 -0.0043921075
-0.037599713 -0.0275 -0.0045024352
-0.036359537 -0.0275 -0.0040978524
-0.018038491 -0.020755796 -0.0099241417
-0.034627665 -0.0275 -0.0044728918
-0.033583649 -0.0275 -0.0044726622
-0.032348618 -0.0275 -0.0046402356
-0.045664299 -0.0275 -0.0069200825
-0.030243939 -0.027500002 -0.0045023877
-0.029366305 -0.0275 -0.0046860175
-0.028442794 -0.0275 -0.0045488533
-0.027520843 -0.0275 -0.0046920707
-0.026639087 -0.027500002 -0.004487107
-0.025159059 -0.0275 -0.0043477993
-0.024362605 -0.0275 -0.0046865218
-0.02243557 -0.0275 -0.004737651
-0.010761436 -0.025755886 -0.0054093022
-0.020486604 -0.0275 -0.0043497793
-0.019615337 -0.027500002 -0.0046338076
-0.01835517 -0.027500002 -0.0042867656
-0.017463155 -0.0275 -0.0041094925
-0.016417373 -0.0275 -0.004944874
0.0035817251 0.00090811774 -0.011728605
-0.014339516 -0.0275 -0.0045569735
-0.038495414 -0.0053033475 -0.0175
-0.012771877 -0.010580807 -0.008040796
-0.012957017 -0.025153279 -0.0071027093
-0.010376217 -0.0275 -0.0045890138
-0.0091239577 -0.0275 -0.004495847
-0.0082806963 -0.0275 -0.0045702909
-0.0075095473 -0.0275 -0.0042908806
-0.0067115035 -0.0275 -0.0046419529
-0.027467204 -0.019127898 -0.010890073
-0.0044347006 -0.0275 -0.0042348737
-0.0035232517 -0.0275 -0.0045463918
-0.0025398845 -0.0275 -0.0042886767
-0.0013270278 -0.0275 -0.0045313444
-0.00063161645 -0.0275 -0.0040904684
0.00051167037 -0.0275 -0.0042462405
0.011804215 -0.0011371961 -0.017500002
0.0021352642 -0.0275 -0.004513992
0.0038187406 -0.0275 -0.0046481686
0.016761998 -0.023824582 -0.0065055927
0.044638772 -0.0031837646 -0.0175
0.006188117 -0.0275 -0.0045574354
0.01753347 -0.025828434 -0.0093779787
0.0083256504 -0.0275 -0.0044560656
0.009653612 -0.0275 -0.0040891371
0.010371609 -0.027500004 -0.0044724774
0.038144842 -0.0064487373 -0.0056164064
0.00046773505 -0.024817199 -0.0088718031
0.013643414 -0.0275 -0.0045453045
0.014508332 -0.0275 -0.0046524899
0.01499685 -0.015597122 -0.0079441546
0.016412936 -0.0275 -0.0045569856
-0.014136594 -0.021562776 -0.011156632
0.023987569 -0.010139472 -0.0087642027
0.019490711 -0.0275 -0.0042771613
0.020239104 -0.0275 -0.0043422952
0.021595757 -0.027500002 -0.0046194363
0.0021617208 -0.022089418 -0.0088152997
0.023531256 -0.027500002 -0.0043796645
0.025038075 -0.025499793 -0.0063551748
0.015149957 -0.024057716 -0.0076857908
0.026439615 -0.0275 -0.0047398917
0.027549861 -0.0275 -0.0044208728
0.02824801 -0.0275 -0.0041998057
0.029609397 -0.0275 -0.0045647635
0.0141312 -0.017184839 -0.01105399
0.031598754 -0.0275 -0.0043135812
0.032603107 -0.0275 -0.0048974073
0.033703562 -0.027500002 -0.0044293925
0.022035733 -0.024873883 -0.006087672
0.035685062 -0.0275 -0.0044585532
0.036349289 -0.0275 -0.0045921374
0.037357733 -0.0275 -0.0045364825
0.038409218 -0.0275 -0.0044657709
0.040658597 -0.026262952 -0.0071875453
0.040387034 -0.027500002 -0.0042522829
0.010514787 -0.0275 -0.0065099252
0.046394106 -0.024484042 -0.0073824613
0.044347975 -0.0275 -0.0041318312
0.04526563 -0.0275 -0.0048462329
0.046392802 -0.027500004 -0.0045667137
0.038909748 -0.0275 -0.010557802
0.042449053 -0.0275 -0.008285786
0.049498882 -0.027500002 -0.0047441325
0.050275512 -0.0275 -0.004439055
0.051457416 -0.027500002 -0.0047806925
0.052621514 -0.0275 -0.0044403868
0.053048231 -0.0275 -0.0041987309
0.034320615 -0.02256096 -0.0088822991
0.055620387 -0.0275 -0.0048044259
0.056646224 -0.0275 -0.0042666993
0.057946689 -0.0275 -0.0043995949
0.05859701 -0.0275 -0.0044914116
0.059434306 -0.027500002 -0.0046565193
0.060573641 -0.0275 -0.0046653152
0.035124809 -0.023090787 -0.0066295061
0.062825844 -0.027500002 -0.0044618398
0.049559973 -0.021522006 -0.0072310599
0.064691566 -0.02743179 -0.0045964923
-0.064999998 -0.026455246 -0.004558004
0.064999998 -0.026487883 -0.0047268253
-0.064999998 -0.025476385 -0.004574975
0.064999998 -0.02527713 -0.0045055691
-0.064999998 -0.024204049 -0.004993448
0.064999998 -0.02448923 -0.0045275823
-0.064999998 -0.023407286 -0.0041515585
0.031787939 -0.0062664542 -0.0081587983
-0.054756619 -0.017185815 -0.0066772979
-0.064999998 -0.0215417 -0.0045753745
0.064999998 -0.021384135 -0.0045864563
-0.064999998 -0.020528452 -0.004230015
0.064999998 -0.020547664 -0.0045164358
-0.037689105 -0.0077143433 -0.0088910898
0.064999998 -0.019315764 -0.0046529379
-0.062590823 -0.017879389 -0.0055595217
0.060967881 -0.016978612 -0.0064244326
-0.064999998 -0.017923489 -0.0044862228
0.064999998 -0.017423043 -0.0044701169
-0.064999998 -0.016516829 -0.0043949173
0.064999998 -0.016502243 -0.0047375695
-0.033143513 -0.0079982895 -0.0077849654
0.064999998 -0.01537418 -0.0044765896
-0.064236306 -0.0095219463 -0.0069499575
0.064999998 -0.014288679 -0.004337444
-0.064999998 -0.01349267 -0.0046244296
0.064999998 -0.013513801 -0.0043945936
-0.064999998 -0.012633298 -0.0046911282
0.064999998 -0.012676008 -0.0047126468
-0.064999998 -0.011539275 -0.0041854358
0.064999998 -0.011644004 -0.0045882748
-0.038768329 -0.019136833 -0.0070555611
0.040655956 -0.010566305 -0.011050669
-0.057196446 -0.013336478 -0.0086851967
0.059083939 -0.012210657 -0.005007545
-0.064999998 -0.0081318328 -0.0049296292
0.024980633 -0.016129663 -0.0076496676
-0.062750109 -0.007056471 -0.0057297661
0.063756995 -0.0011618001 -0.0069883601
-0.054453768 -0.0026855662 -0.0067836605
0.064999998 -0.0062666675 -0.0044051297
-0.064999998 -0.0056934962 -0.0044925599
0.064999998 -0.0057953554 -0.0046924236
-0.064999998 -0.0045155552 -0.0046150731
0.04844626 0.0050367308 -0.0097710574
-0.053344674 -0.00026281588 -0.0097654555
0.029163353 0.0053806752 -0.0087354258
-0.044630423 0.002932739 -0.0075224871
0.064999998 -0.002529721 -0.0042793145
-0.064999998 -0.0014576728 -0.0045551192
0.064999998 -0.001350244 -0.0045989007
-0.064999998 -0.00021992906 -0.004398433
0.064999998 -0.00050814002 -0.0046191975
-0.034741748 0.0021723355 -0.011000829
0.064999998 0.00062363315 -0.0043353424
-0.064999998 0.0013973368 -0.004696195
0.057719842 0.014693179 -0.0078443065
-0.048853181 -0.00014477581 -0.0081511782
0.064999998 0.0024464503 -0.0044485629
0.064999998 0.0034843078 -0.0044903103
-0.03520203 0.0047481162 -0.010547046
0.064999998 0.0045335386 -0.0047524981
-0.064999998 0.005400104 -0.0044801012
0.033580866 -0.0010073895 -0.0078449063
-0.064999998 0.0067642047 -0.0044017015
0.064999998 0.0064328085 -0.0045433952
-0.064999998 0.0075916732 -0.0045025349
0.064999998 0.0073618507 -0.0041357889
-0.064999998 0.0083027398 -0.0045963777
0.056730352 0.0052038273 -0.0055914591
-0.056128893 0.0042214869 -0.0070618601
0.064999998 0.0097105252 -0.004427555
-0.064999998 0.010714545 -0.0045739054
0.064999998 0.010495393 -0.0045392839
-0.042904846 0.006283598 -0.0077100657
0.064999998 0.011653427 -0.0043881559
0.064999998 0.012468209 -0.0047323303
-0.064999998 0.013163213 -0.004081334
0.064999998 0.01340433 -0.0043760682
-0.064999998 0.01439742 -0.0043353727
0.064999998 0.014531878 -0.0045008175
-0.061811395 0.010118105 -0.0054883491
0.046741467 0.01286903 -0.0067976592
-0.064999998 0.016535636 -0.0044230432
0.064999998 0.016705263 -0.0046339142
-0.064999998 0.017512012 -0.0041258661
0.064999998 0.017313084 -0.0048424392
-0.047854017 0.013271898 -0.0070828125
0.064999998 0.018449258 -0.0045432053
-0.064999998 0.019469712 -0.004365393
0.064999998 0.014027461 -0.0069864485
-0.064999998 0.020185141 -0.004072607
0.064999998 0.020545926 -0.0043755369
-0.064999998 0.021774543 -0.0044852453
0.064319134 0.01824246 -0.0071127932
-0.064999998 0.02244967 -0.0044462238
0.064999998 0.022493403 -0.0044214381
-0.064999998 0.023432698 -0.00479068
-0.045338951 -0.0030750586 -0.0175
-0.064999998 0.024459844 -0.0043906607
0.064999998 0.024186153 -0.0048929323
-0.064999998 0.025403945 -0.0045417645
0.064999998 0.025713354 -0.0044253012
-0.064999998 0.022275362 -0.0092130369
0.064999998 0.026662648 -0.0045377514
-0.024130447 -9.9127647e-05 -0.0060769552
-0.063576728 0.0275 -0.0045886515
-0.062643081 0.027500002 -0.0044523417
-0.061525315 0.0275 -0.0041332613
-0.059648506 0.0275 -0.0047164527
-0.04016849 0.004435054 -0.013073672
-0.057422042 0.0275 -0.004177711
-0.05583436 0.0275 -0.0040838411
-0.054560345 0.027500002 -0.0045007993
-0.053557217 0.0275 -0.0043436904
-0.041785523 0.027500002 -0.0050322535
-0.053244472 0.021276552 -0.0045572626
-0.040086765 0.023711307 -0.0068043149
-0.049662609 0.0275 -0.0045764702
-0.048286341 0.027500002 -0.0045932652
-0.0072982679 0.024000647 -0.0082448637
-0.023476046 0.020586556 -0.0068935882
-0.048874464 0.016686318 -0.0070972876
-0.033775352 0.013354602 -0.0053821038
-0.043700464 0.0275 -0.0044083772
-0.042450011 0.0275 -0.0046593426
-0.041446097 0.0275 -0.0043864679
-0.040514033 0.027500002 -0.0045878524
-0.039471727 0.027500002 -0.0045311293
-0.038571313 0.0275 -0.0048887189
-0.037400093 0.0275 -0.0045736218
-0.032829087 0.014555681 -0.0078918273
-0.035549656 0.0275 -0.0042617992
-0.034634415 0.0275 -0.0044060098
-0.03334941 0.027500002 -0.0043878243
-0.032180324 0.0275 -0.0043590507
-0.031939495 0.0275 -0.0048425822
-0.030277699 0.0275 -0.0046204561
-0.029653458 0.0275 -0.0041901651
-0.011176012 0.018975237 -0.0077645481
-0.027383849 0.0275 -0.004218583
-0.026267579 0.027500002 -0.0045745526
-0.025282813 0.0275 -0.0045093168
-0.024595663 0.027500002 -0.0046300618
-0.021565281 0.024766348 -0.0068250019
-0.022281971 0.0275 -0.0042033847
-0.02150934 0.0275 -0.0045199348
-0.02887295 0.0091666663 -0.0045758951
-0.019691914 0.0275 -0.0046700155
-0.018549515 0.0275 -0.0045857634
-0.023650274 0.017093932 -0.0069037126
-0.016550576 0.027500002 -0.0042442251
-0.015343875 0.027500002 -0.004517558
-0.022215096 0.025272995 -0.0065264544
-0.013566202 0.0275 -0.004406482
0.0038178838 0.01375 -0.0075660995
-0.011831962 0.0275 -0.0045241136
-0.010573691 0.027500002 -0.0042791497
-0.0061436221 0.026569698 -0.0056330315
-0.03040424 0.018730005 -0.0083098924
-0.001095823 0.023818128 -0.0066172788
-0.0159028 0.014753348 -0.0068822773
-0.0055012964 0.0275 -0.0044939839
0.0025229205 0.0064642611 -0.0073336102
-0.0018109463 0.0275 -0.0040452117
0.024009896 0.017976452 -0.011241054
0.00030974089 0.0275 -0.0045568822
0.0016664797 0.0275 -0.0043913685
-0.010803428 0.018316342 -0.0061680321
-0.0030565017 0.0275 -0.0073663173
0.0042895786 0.027500002 -0.0044913958
-0.017315593 0.012885123 -0.0087541882
0.0063381149 0.0275 -0.0045072092
0.0048302161 0.021883257 -0.0062096757
0.0083061922 0.0275 -0.004362952
0.009425628 0.027500002 -0.0044803289
0.01078676 0.027500002 -0.0045450581
0.011480961 0.027500002 -0.0044261618
0.012203092 0.0275 -0.0043773749
0.013353772 0.0275 -0.0044663465
0.016756734 0.019268394 -0.0076459218
0.015447105 0.0275 -0.0045162691
0.016885959 0.0275 -0.0044049108
0.015824042 0.01375 -0.0062161675
0.018749299 0.0275 -0.0045538135
0.019428305 0.0275 -0.0042755846
0.02042678 0.0275 -0.0044480497
0.012177992 0.019606214 -0.0057721599
0.022384312 0.0275 -0.0040590856
0.023313558 0.0275 -0.0044759018
0.0086446321 0.022248259 -0.0077666258
0.025399547 0.027500002 -0.0043842075
0.026541812 0.027500002 -0.0045114402
0.021750089 0.02206789 -0.0058691823
0.028358538 0.0275 -0.004393395
0.032317948 0.020465309 -0.0070155896
0.031345364 0.0275 -0.0044585681
0.032758322 0.0275 -0.0045126379
-0.011482501 0.023806565 -0.010873333
0.0346548 0.0275 -0.004575863
0.035678018 0.0275 -0.0042839027
0.036537424 0.0275 -0.004590556
0.037581556 0.027500004 -0.0045993766
0.038600564 0.0275 -0.0043318546
0.039573353 0.027500002 -0.0043974118
0.040760607 0.0275 -0.0041964636
0.023843493 0.012498369 -0.0071470398
0.042710505 0.0275 -0.0045594927
0.031222614 0.010777815 -0.0096004885
0.038262464 0.021434736 -0.0090425201
0.045720551 0.0275 -0.0042816927
0.046013329 0.0275 -0.0044734301
0.047599453 0.027500002 -0.0044594863
0.048287366 0.0275 -0.0047166171
0.043720156 0.018333334 -0.0051419418
0.05050052 0.0275 -0.0045535299
0.051583044 0.027500002 -0.0043069911
0.052241698 0.027499998 -0.0042576157
0.051316887 0.022735983 -0.0067531965
0.054685932 0.027500002 -0.0046529085
0.03565101 0.025454326 -0.0062522902
0.056670532 0.0275 -0.0041719466
0.05764512 0.0275 -0.0040376852
0.058065493 0.027500002 -0.0043662358
0.060602453 0.01500611 -0.0076405322
0.037017383 0.02516601 -0.0088819852
0.062765792 0.0275 -0.0047941022
0.06362085 0.0275 -0.0045197522
0.048878387 0.025099371 -0.0063476358
-0.064637497 -0.027380882 -0.0034586748
-0.063278526 -0.0275 -0.0034666485
-0.0628848 -0.0275 -0.0035115357
-0.061479282 -0.0275 -0.0035629626
-0.059621353 -0.027500002 -0.0035099871
-0.05866487 -0.027500002 -0.0034667454
-0.047330953 -0.020658661 -0.0059269518
-0.048644871 -0.0052371416 -0.010148439
-0.031533115 -0.0071963603 -0.0070642764
-0.05476477 -0.0275 -0.0037942026
-0.053845972 -0.0275 -0.0034389701
-0.052520122 -0.027500004 -0.0035500554
-0.051497214 -0.0275 -0.0037691891
-0.050183378 -0.0275 -0.0031883069
-0.049542524 -0.0275 -0.0033612326
-0.048526138 -0.027500002 -0.0036573389
-0.047611654 -0.0275 -0.003454915
-0.046441592 -0.0275 -0.0034763855
-0.045641601 -0.0275 -0.0039763846
-0.037519682 -0.024903519 -0.0061806822
-0.043677434 -0.0275 -0.0032196396
-0.018020203 -0.025690073 -0.0092676301
-0.041777425 -0.0275 -0.0035284287
-0.040681362 -0.0275 -0.0036043823
-0.039403792 -0.0275 -0.0036214828
0.009023793 -0.026738293 -0.0067534689
-0.041466162 -0.026702419 -0.0069331368
-0.036347147 -0.027500002 -0.0032682077
-0.030420108 -0.013776107 -0.0070157661
-0.034533303 -0.027500002 -0.0034649528
-0.02906185 -0.017669775 -0.0079836594
-0.032503314 -0.027500002 -0.0034932522
-0.013748065 -0.020598106 -0.012723411
-0.030398475 -0.027500004 -0.0036179728
-0.029447958 -0.0275 -0.0034659784
-0.0050033452 -0.017208185 -0.0044680429
-0.027509548 -0.0275 -0.003686124
-0.035875186 -0.0055425214 -0.0076905098
-0.010660517 -0.016727259 -0.0062957644
-0.024822865 -0.0275 -0.0035456182
-0.023668041 -0.027500002 -0.0037469806
-0.022520145 -0.0275 -0.0036186676
-0.029258678 -0.014288072 -0.0070276135
-0.013972763 -0.016068876 -0.008235353
-0.023538167 9.3132257e-10 -0.0095620342
-0.018647054 -0.0275 -0.0032265792
-0.017314211 -0.0275 -0.0036044102
-0.016380258 -0.027500002 -0.0037641113
0.0042086644 -0.0275 -0.0098642744
-0.014550835 -0.0275 -0.0036649031
-0.013705736 -0.0275 -0.0036522364
-0.012371873 -0.0275 -0.0037522104
-0.016093139 -0.024634369 -0.0058971532
-0.010637518 -0.0275 -0.0038081901
-0.0095906425 -0.0275 -0.00380134
-0.0081444643 -0.0275 -0.0036666687
-0.0076622232 -0.018333334 -0.0044566067
-0.0068151876 -0.0275 -0.0035065268
-0.00074794027 -0.0275 -0.0055605182
-0.0055950875 -0.026115723 -0.0070785135
-0.0034151096 -0.0275 -0.0033269287
-0.002588491 -0.0275 -0.0036501298
0.0025357362 -0.014692944 -0.0069314619
-0.013642466 -0.0095792655 -0.008091595
0.0029873922 -0.026297435 -0.0067459187
0.0015837338 -0.027500002 -0.0034052939
0.0069086524 -0.0275 -0.0056764935
0.018811328 -0.021458801 -0.0052021588
-0.013871402 -0.010179022 -0.0078611141
0.0055096857 -0.027500002 -0.0035395382
0.0064479709 -0.027500002 -0.0034825625
0.0076598981 -0.027499998 -0.0035680854
0.0058933022 -0.026342396 -0.0059384583
0.0096382163 -0.0275 -0.003239125
0.00888108 -0.023089502 -0.0065198853
0.01146982 -0.0275 -0.0030077479
0.0080298018 -0.027500002 -0.0039905459
0.013360173 -0.0275 -0.0032988971
0.016300252 -0.0275 -0.0047701863
0.015710302 -0.0275 -0.0032474915
0.016878098 -0.0275 -0.0033445682
-0.0028800245 -0.026475241 -0.0082637277
0.015354052 -0.027500002 -0.0035346393
0.02143696 -0.0275 -0.0032902204
0.022672798 -0.0275 -0.0034717894
0.023547761 -0.021101682 -0.0058546858
0.024492392 -0.027500002 -0.0033868216
0.025462059 -0.0275 -0.0037610922
0.026350066 -0.0275 -0.0037457447
0.027434085 -0.027500002 -0.0035172259
0.028713644 -0.0275 -0.0034075514
0.030229023 -0.0275 -0.0034801243
0.031558454 -0.0275 -0.00340511
0.012768781 -0.025829975 -0.0099082645
0.033427548 -0.0275 -0.0036936328
0.034480955 -0.027500002 -0.0034260531
0.023028508 -0.0275 -0.0039586932
0.036661796 -0.0275 -0.0031829448
0.037482947 -0.0275 -0.0032668773
0.038237292 -0.0275 -0.0035866871
0.034296792 -0.019719984 -0.0041332087
0.040343586 -0.027500002 -0.0032540068
0.045796674 -0.0091666672 -0.0064924946
0.026336305 -0.027053483 -0.0072383764
0.043346208 -0.027500002 -0.0034651484
0.044807389 -0.0275 -0.0036036039
0.045803498 -0.0275 -0.003693867
0.046639636 -0.0275 -0.0030095275
0.047611598 -0.027500002 -0.0033760497
0.048448719 -0.0275 -0.0034478658
0.049541913 -0.027500002 -0.0033399442
0.050391637 -0.0275 -0.0036170075
0.051502004 -0.0275 -0.0032201107
0.023258656 -0.02249594 -0.0050483476
0.053310797 -0.0275 -0.0035845684
0.016751178 -0.0275 -0.0068728877
0.055062663 -0.0275 -0.0031064092
0.056303285 -0.0275 -0.0035657175
0.057179265 -0.0275 -0.0034010827
0.058416203 -0.0275 -0.0037148437
0.059486113 -0.0275 -0.0035865209
0.060249474 -0.0275 -0.0036050021
0.053064674 -0.027500002 -0.0053017768
0.062775075 -0.0275 -0.0031715198
0.035623774 -0.019030437 -0.0081135146
0.048270211 -0.019670568 -0.0063739656
-0.062056363 -0.0020069182 -0.012783389
0.064999998 -0.026558947 -0.0033525324
-0.064999998 -0.025430486 -0.0036657916
0.064999998 -0.025397822 -0.003477969
-0.064999998 -0.024289897 -0.0034071298
0.064999998 -0.024608307 -0.0033285262
-0.064999998 -0.023687953 -0.00356545
0.03688452 -0.024064703 -0.0071493881
-0.064999998 -0.022321023 -0.0035087336
0.064999998 -0.022323631 -0.0035639449
-0.064999998 -0.0211448 -0.0039009107
0.052059524 -0.021227069 -0.0056187524
-0.064999998 -0.020326838 -0.0035896024
0.064999998 -0.020461366 -0.0035637501
-0.064999998 -0.019612994 -0.0036461107
0.064999998 -0.019545458 -0.0034083778
-0.064999998 -0.018521737 -0.0033557336
0.064999998 -0.018601283 -0.0035344642
-0.057259869 -0.016780091 -0.0058008116
0.064999998 -0.017504994 -0.0034108893
-0.064999998 -0.016526267 -0.0034844982
0.064999998 -0.016597873 -0.0032621638
-0.021666666 -0.015930472 -0.0032599736
0.064999998 -0.015730347 -0.0037022817
-0.064999998 -0.014544897 -0.0035219565
0.045574348 -0.008401352 -0.008094307
-0.064999998 -0.013523857 -0.003360101
0.064999998 -0.013552524 -0.0033420811
-0.064999998 -0.012399908 -0.0034712926
-0.061665844 -0.0055648345 -0.0061541093
0.064999998 -0.011326638 -0.003349869
-0.056261491 -0.01377295 -0.0062877983
0.046846129 0.0022129244 -0.010471014
-0.064999998 -0.0096241869 -0.0036245282
0.064999998 -0.0095301727 -0.0036942244
-0.024705313 0.0015682274 -0.0058045066
0.064999998 -0.0082672071 -0.0035293715
-0.064999998 -0.0071280021 -0.0034284196
0.064999998 -0.0074419081 -0.0034982599
-0.064999998 -0.0065596271 -0.0030284591
0.064999998 -0.0067462344 -0.0037348073
-0.064999998 -0.0056281053 -0.0035232895
0.058728747 -0.0047400813 -0.0057354532
-0.049890596 -0.0032801228 -0.0068822266
-0.036933191 -0.008889514 -0.0079610134
0.064999998 -0.0036336547 -0.0035452803
-0.064999998 -0.0024130815 -0.0033951169
0.064999998 -0.0026899264 -0.003439486
0.039000001 -0.0045036185 -0.0051223631
-0.064999998 -0.00013576094 -0.0034640399
0.064325772 -0.0032548769 -0.0058846185
-0.064999998 0.00061481062 -0.003694949
0.064999998 0.00055988081 -0.003398421
-0.030042995 0.0089406902 -0.006780237
0.051927861 0.0016946541 -0.0055062049
-0.03680177 0.0045302371 -0.0077489391
0.053371899 -0.0018348977 -0.0072371727
-0.064999998 0.0033692233 -0.0032955687
0.064999998 0.0034966161 -0.0037227941
-0.064999998 0.0043570828 -0.0038803346
0.064999998 0.0040911464 -0.0030671083
-0.064999998 0.0054882625 -0.0038436758
0.064999998 0.0057727504 -0.0037952499
-0.060077578 0.0039917668 -0.0054897573
0.064999998 -0.0021607655 -0.0072232964
-0.064999998 0.0072916867 -0.0037408336
0.064999998 0.0078638978 -0.0035579957
-0.064999998 0.0086133908 -0.0037281259
0.064999998 0.0088816378 -0.0039104181
-0.046758175 0.011118333 -0.0059217396
0.064999998 0.0094315922 -0.0035504221
-0.064999998 0.010384208 -0.0032945857
0.044670977 0.012840543 -0.0068150545
-0.064999998 0.011502923 -0.0032245337
0.064999998 0.011560364 -0.0034936501
-0.064401597 0.0080788694 -0.0059777815
0.043281637 0.015637113 -0.004835268
-0.064999998 0.013376984 -0.003752793
0.064999998 0.013516711 -0.0036007126
-0.060839985 0.015995085 -0.0061867503
0.021872193 0.018778306 -0.0094110509
-0.059215985 0.0041114516 -0.0081266984
0.064999998 0.015447326 -0.0036077048
-0.044605412 0.010136237 -0.0058270432
0.059852146 0.016266255 -0.004242654
-0.064999998 0.017297382 -0.0033687595
0.064999998 0.017477166 -0.0035276911
-0.064999998 0.01856757 -0.0035537404
0.064999998 0.018537704 -0.0035349345
-0.044225641 0.013488835 -0.0082472265
0.064999998 0.019401794 -0.0034727764
-0.064999998 0.020593211 -0.0034705733
0.064999998 0.020994876 -0.0030877462
-0.064999998 0.021477809 -0.0033732362
0.064999998 0.02193502 -0.003155977
-0.047243174 0.021880735 -0.0070919008
0.064999998 0.02276361 -0.0038174829
-0.064999998 0.023498038 -0.0035723504
0.064999998 0.02330469 -0.0034490996
-0.064999998 0.024610113 -0.0035685792
0.064999998 0.024234029 -0.0032715262
-0.051621009 0.0075983712 -0.0086554214
0.018532921 0.014485491 -0.0066800504
-0.06023708 0.009598216 -0.010479471
0.064999998 0.026421491 -0.0036619834
-0.050542392 0.017936341 -0.006610306
-0.063327536 0.0275 -0.003268199
-0.062312156 0.0275 -0.0035030451
-0.061494499 0.0275 -0.0033710862
-0.060396027 0.0275 -0.0036461041
-0.059537519 0.027500004 -0.0034750188
-0.058213193 0.0275 -0.0034336285
-0.05751225 0.0275 -0.0034749596
0.050678495 -0.0020184624 -0.016381012
-0.055033416 0.0275 -0.0036473223
-0.054441184 0.027500002 -0.0034070672
-0.031052493 0.022531461 -0.0067800619
-0.020637739 0.013184543 -0.0082340371
-0.039310321 0.021346621 -0.0059393304
-0.050405316 0.0275 -0.0030462164
-0.049441501 0.0275 -0.0036002528
-0.047517605 0.0275 -0.0034964068
-0.046254598 0.0275 -0.0032832648
0.064999998 -0.013500286 -0.012427276
-0.044387318 0.0275 -0.003611142
-0.043676637 0.0275 -0.0035048868
-0.042024948 0.0275 -0.0035883151
-0.0060545928 0.014755371 -0.0080849566
0.039536305 -0.020132586 -0.017500002
-0.034904588 0.018207207 -0.0049268254
-0.038449157 0.027499998 -0.0039353869
-0.034900915 0.018333334 -0.0055907164
-0.036117841 0.0275 -0.0033564686
-0.035494681 0.027500002 -0.0036018498
-0.034298651 0.0275 -0.0034648583
-0.03365434 0.0275 -0.003431594
-0.032758452 0.019671958 -0.0053900522
-0.014131654 0.012837164 -0.0054940432
-0.030368496 0.0275 -0.0034442679
-0.029584344 0.027500002 -0.0033105239
-0.028282519 0.0275 -0.0038260659
-0.01619168 0.0165 -0.0043321848
-0.013408519 0.025936112 -0.0062293783
-0.024626493 0.027500002 -0.0034113028
-0.02320189 0.0275 -0.0032946884
-0.022213124 0.0275 -0.003618062
-0.021778774 0.022604141 -0.005122772
-0.019682158 0.027500002 -0.0035069478
-0.018066142 0.0275 -0.0036060093
-0.01753946 0.027500002 -0.0035434496
-0.016444737 0.027500002 -0.0037066427
-0.015271778 0.0275 -0.0034358255
-0.014510954 0.027500004 -0.0036379043
-0.0073417225 0.018286467 -0.0062473156
-0.022999492 0.025509996 -0.0055320356
-0.011132753 0.0275 -0.0036335168
-0.019162698 0.027500002 -0.0059370799
-0.0096211173 0.0275 -0.0033413291
-0.0085038738 0.027500002 -0.0035478179
-0.0076448824 0.0275 -0.0037170425
-0.0062554227 0.0275 -0.0036346957
-0.0055153742 0.0275 -0.0030332725
-0.0044493335 0.027500004 -0.0034411168
-0.003761169 0.0275 -0.0037924871
-0.0023706518 0.0275 -0.0032423427
-0.0014884245 0.0275 -0.0036698859
-0.00075013738 0.0275 -0.0037227231
0.013110315 0.015500168 -0.0070818216
0.013036653 0.024255119 -0.006326539
0.0024211321 0.0275 -0.0038662883
0.0036399399 0.0275 -0.0033574414
0.0049643279 0.0275 -0.0032535892
0.0053838803 0.0275 -0.0035099366
0.0066484767 0.0275 -0.0034866151
0.0072885663 0.0275 -0.0034095671
0.012789425 0.02152417 -0.0055465898
0.0094332863 0.0275 -0.0030772816
0.015247961 0.019642858 -0.0045938268
0.011623822 0.0275 -0.0036469288
0.024961278 0.0065878131 -0.010405254
0.017026333 0.019860974 -0.0082459915
0.012771179 0.02261338 -0.0051875692
0.015389132 0.0275 -0.0035801181
0.011550475 0.0165 -0.0057803183
0.01761031 0.0275 -0.0033061446
0.012086131 0.02203346 -0.0069493982
0.028342849 0.018318415 -0.0061945813
0.020548973 0.0275 -0.0034050234
0.010800618 0.019795299 -0.0083114691
0.022341855 0.027500002 -0.0033340142
0.022319958 0.02431854 -0.0061211237
0.024215328 0.0275 -0.0031109937
0.031467494 0.026467884 -0.0060757333
0.026432887 0.0275 -0.0036180818
0.02726627 0.0275 -0.0035026553
0.028758107 0.0275 -0.00373778
0.029419433 0.0275 -0.0035107106
0.030468296 0.0275 -0.0036550085
0.031485982 0.0275 -0.0036335366
0.037563048 0.026665127 -0.0059731556
0.035918914 0.021139255 -0.0062478683
0.034593072 0.0275 -0.0035293205
0.012022806 0.026133766 -0.0056784805
0.036249749 0.0275 -0.0035371114
0.037383452 0.0275 -0.0037493668
0.038552117 0.027500002 -0.0034082145
0.038283542 0.02381376 -0.0068124859
0.040431332 0.027500002 -0.003383033
0.034559187 0.023833334 -0.0054956912
0.043437012 0.0275 -0.0036436333
0.044478126 0.0275 -0.0034150141
0.045514219 0.0275 -0.0031425171
0.046447515 0.0275 -0.0037221189
0.047556214 0.0275 -0.0036042163
0.048519354 0.027500002 -0.0037520633
0.049440041 0.0275 -0.0034246519
0.050378054 0.0275 -0.003504737
0.051488362 0.0275 -0.0032274914
0.05243694 0.027500002 -0.0035151904
0.037129119 0.023275886 -0.0071491636
0.054726608 0.0275 -0.0031149066
0.055399407 0.0275 -0.0035354216
0.05650524 0.0275 -0.0038323293
0.05767801 0.0275 -0.0035068851
0.040911235 0.018922871 -0.0037687533
0.060895074 0.014041615 -0.0056575886
0.060697258 0.0275 -0.0034494321
0.048316266 0.025936473 -0.005779549
0.06264478 0.0275 -0.0035731138
0.063337564 0.0275 -0.0034402683
0.054055296 0.021327641 -0.0044712303
-0.033722501 -0.024893567 -0.0061024264
-0.063522913 -0.027500002 -0.0023678485
-0.062588841 -0.027500002 -0.0025078701
-0.061087936 -0.0275 -0.0026141179
-0.051491179 -0.025366101 -0.0043664058
-0.059266124 -0.019491773 -0.0060925749
-0.049224574 -0.026453041 -0.004741502
-0.057395212 -0.0275 -0.002702143
-0.056220412 -0.0275 -0.0026304531
-0.055356868 -0.0275 -0.0023057242
-0.050349969 -0.017735925 -0.0055021527
-0.0028648954 -0.013897222 -0.010060918
-0.033251747 -0.0052438015 -0.0095467586
-0.051535755 -0.0275 -0.0027107266
-0.050266378 -0.0275 -0.0024581151
-0.049135674 -0.0275 -0.0022576535
-0.048749309 -0.0275 -0.002430602
-0.046705514 -0.027500002 -0.0023054814
-0.021389058 -0.025407989 -0.006837687
-0.037167948 0 -0.0074943709
-0.022300791 -0.0275 -0.0053965952
-0.041492205 -0.0275 -0.0026367258
-0.040658429 -0.0275 -0.0026987635
-0.039053045 -0.0275 -0.0026720762
-0.038434438 -0.027500002 -0.0026317125
-0.037822589 -0.0275 -0.0024700512
-0.012062809 -0.023719367 -0.0044516074
-0.035483509 -0.027500004 -0.0024632902
-0.034550101 -0.0275 -0.0024715085
-0.033875301 -0.0275 -0.0022549157
-0.03256714 -0.0275 -0.0024023526
-0.0026990455 -0.011717685 -0.0072012483
-0.030183919 -0.0275 -0.0021313198
-0.015488424 -0.023860291 -0.006231741
-0.013460254 -0.02253723 -0.0073593697
-0.024001172 -0.020948948 -0.004484897
-0.02408044 -0.026680021 -0.0048412974
-0.025582215 -0.0275 -0.0025236367
-0.024472978 -0.0275 -0.0020955941
0.0028537875 -0.0084588509 -0.0099520385
-0.0064904345 -0.0275 -0.0057099652
-0.021711899 -0.0275 -0.0024461732
-0.0065534469 -0.020080356 -0.0099201789
0.0034617502 -0.025456291 -0.0075681973
-0.018605156 -0.0275 -0.0026716769
-0.033329923 -0.017867818 -0.0045231837
-0.016496692 -0.0275 -0.002600556
-0.015559092 -0.0275 -0.0023240736
-0.014338957 -0.027500004 -0.0025560388
-0.013494231 -0.0275 -0.0022366929
-0.018222565 -0.01837639 -0.0054769535
-0.012338545 -0.021526422 -0.0043851193
-0.010347249 -0.0275 -0.0025866211
0.0021617922 -0.0275 -0.0026818728
-0.010072143 -0.019242264 -0.0063311206
-0.0078047626 -0.0275 -0.0025049301
0.0088020042 -0.0091666672 -0.0045831352
-0.0055607199 -0.0275 -0.0022838672
-0.017614825 -0.020899409 -0.0059260293
-0.0033683234 -0.0275 -0.002297523
-0.0073488546 -0.016473763 -0.0062921979
-0.016625803 -0.020081207 -0.0073191277
-0.011092279 -0.024569495 -0.0055213319
0.00085601292 -0.0275 -0.0026102411
0.0014630072 -0.0275 -0.0023823953
0.0023668285 -0.0275 -0.0025182755
0.0044360859 -0.0275 -0.0027312939
0.0054925857 -0.027500002 -0.0023422432
0.0063299267 -0.0275 -0.0025467363
0.0072701499 -0.0275 -0.0023903016
0.0085047679 -0.027500002 -0.0024875675
0.0095167719 -0.0275 -0.0021217745
-0.027172009 -0.0070101712 -0.0053085485
0.011605093 -0.027500002 -0.0024049263
0.012620622 -0.027500002 -0.0026900913
0.013671197 -0.027500002 -0.0024267458
0.014602023 -0.027500002 -0.002552845
0.015340002 -0.0275 -0.0023576755
0.012356929 -0.022206668 -0.0076159528
0.017637964 -0.0275 -0.002390408
0.018503746 -0.027500004 -0.0026722425
0.019104965 -0.0275 -0.0029581168
0.020712363 -0.0275 -0.0026673987
0.021477168 -0.027500002 -0.0023438199
0.02239598 -0.027500002 -0.0024447707
0.023788057 -0.0275 -0.0028694961
0.024357412 -0.027499998 -0.002255392
0.025405308 -0.027500002 -0.0023956625
-0.0035594727 -0.014048091 -0.0075264685
0.027308695 -0.0275 -0.0026736993
0.0088023078 -0.027048118 -0.0098773874
0.00080123422 -0.0271069 -0.0072699878
0.030719802 -0.0275 -0.0023056339
0.0075605391 -0.01773477 -0.0063677151
0.03267885 -0.0275 -0.0025967492
0.039941922 -0.01685733 -0.0031228855
0.018138889 -0.01375 -0.0057515055
0.035284843 -0.0275 -0.0028054914
0.036475483 -0.027500002 -0.0025925108
0.03775619 -0.020625001 -0.003280981
0.038629502 -0.0275 -0.002355258
0.039508488 -0.027500002 -0.0025151405
0.025760334 -0.023480054 -0.012357171
0.041408833 -0.027500002 -0.0026565883
0.043805484 -0.027500002 -0.0032079578
0.043406464 -0.0275 -0.0024077774
0.044347208 -0.027500002 -0.0024642895
0.045859274 -0.0275 -0.002398408
0.04651406 -0.027500004 -0.0024837169
0.047588367 -0.0275 -0.0025103921
0.048420854 -0.0275 -0.0025894768
0.049330052 -0.0275 -0.0020737769
0.050905906 -0.0275 -0.0022319909
0.014946213 -0.0275 -0.006047627
0.052032053 -0.0275 -0.0024548192
0.053330906 -0.0275 -0.002436216
0.054424964 -0.0275 -0.0024667562
0.055663936 -0.0275 -0.0028307098
0.056620456 -0.0275 -0.0025064969
0.054672461 -0.0275 -0.0036483486
0.036034528 -0.0275 -0.0093325768
0.059505563 -0.027500002 -0.0024358197
0.060548909 -0.027500002 -0.0025047541
0.061561268 -0.027500002 -0.0025662153
0.062308963 -0.027500002 -0.0025086228
0.063733973 -0.027500002 -0.0025561966
0.054695975 -0.014677349 -0.0058656628
-0.043228462 -0.02695832 -0.0070434343
0.027140435 -0.022670981 -0.00754919
-0.064999998 -0.025580464 -0.0023720744
0.051917393 -0.025854103 -0.0038564063
-0.032499999 -0.019838026 -0.0056308415
0.064999998 -0.024640584 -0.0026448451
-0.064999998 -0.023739822 -0.0023871143
0.064999998 -0.023568105 -0.0021237908
-0.064999998 -0.022407979 -0.0025415113
0.064999998 -0.022828858 -0.0024449441
-0.064999998 -0.021536013 -0.0027940944
0.064999998 -0.021095082 -0.0028952388
-0.044044055 -0.015361188 -0.0064489776
0.046511382 -0.0067338813 -0.010080335
-0.048124801 -0.017080953 -0.0053299437
0.064999998 -0.019675463 -0.0027805143
-0.06282413 -0.0109725 -0.0077832453
0.064999998 -0.018566648 -0.0025750657
0.064999998 -0.017636908 -0.0026344568
-0.064999998 -0.016481286 -0.0026084238
-0.034189947 -0.013049763 -0.0066532562
0.064999998 -0.015300665 -0.0028143344
-0.064999998 -0.014270931 -0.0024273701
0.064999998 -0.014475429 -0.0026243264
-0.064999998 -0.013785288 -0.0025326645
0.064999998 -0.013684729 -0.0026067242
-0.064999998 -0.012343645 -0.0026089158
-0.064999998 -0.011486779 -0.0022034515
0.054437995 -0.0076535903 -0.007410075
-0.064999998 -0.010616943 -0.0023260033
0.064999998 -0.010673302 -0.002509295
-0.064999998 -0.0094943177 -0.0024296888
0.064999998 -0.0099731749 -0.0023570666
-0.044749372 -0.0061019096 -0.0097821141
0.064999998 -0.008654003 -0.0021522909
-0.064999998 -0.0076727858 -0.002482645
0.064999998 -0.0076446678 -0.0024744391
-0.064999998 -0.006522866 -0.0024316479
-0.064999998 -0.0054605096 -0.0024106798
0.049887922 -0.0023888764 -0.005288092
-0.064999998 -0.0043739276 -0.0024941626
0.064999998 -0.0044610812 -0.0025653206
-0.051474672 -0.005854839 -0.0042727464
0.064999998 -0.0034371214 -0.0027596531
-0.064999998 -0.0021432627 -0.0024285461
0.064999998 -0.0024768217 -0.0022652803
-0.064999998 -0.0014293344 -0.0024980465
0.064999998 -0.001399859 -0.0023958171
-0.05853596 -0.0023669964 -0.0043687904
-0.026279075 -0.024159418 -0.013937786
-0.037860755 -0.013288454 -0.0089747766
0.064999998 0.00070306321 -0.0027032862
-0.026312746 0.0092554558 -0.0075266003
0.064999998 0.001217199 -0.0023959833
-0.064999998 0.0022126958 -0.0021900702
0.064999998 0.0024422342 -0.0026402818
-0.051923793 -0.00029023516 -0.0035463413
0.056277979 -0.0018135988 -0.0082660606
-0.054177705 0.00055738189 -0.0061969487
0.064999998 0.0041339919 -0.0023422111
-0.064999998 0.005562338 -0.0025817992
0.0084393807 -0.010463243 -0.010597114
-0.064999998 0.0064842906 -0.0026568184
0.064999998 0.0067354552 -0.0024502845
-0.064999998 0.0078741405 -0.0022813482
0.035116676 0.0095425071 -0.0060855071
-0.064999998 0.0081336023 -0.0025060128
0.039506905 0.0090556843 -0.0073331622
-0.064999998 0.0095373923 -0.0024628537
0.064999998 0.0095156897 -0.002134772
-0.064999998 0.010922765 -0.0023029794
0.017025784 0.004451992 -0.0078177368
-0.045762386 -0.0081520975 -0.0096889324
0.064999998 0.01166946 -0.0026166323
-0.064999998 0.012196513 -0.0024211816
0.064999998 0.012580619 -0.0024361168
0.064999998 0.013482129 -0.0020612157
-0.064999998 0.014515529 -0.0026184933
0.044430476 0.01563181 -0.007582468
-0.064999998 0.015621128 -0.0023717955
0.064999998 0.01546194 -0.0023979461
-0.064999998 0.016361788 -0.0025873804
0.064999998 0.016332071 -0.002595522
-0.064999998 0.01748126 -0.0028440827
0.064999998 0.017570438 -0.0024426873
-0.052826472 0.02042347 -0.003989669
0.064999998 0.01811331 -0.00240033
-0.064999998 0.019572673 -0.0026999738
0.064999998 0.019503674 -0.0022057421
-0.064999998 0.020597905 -0.0024570909
0.064999998 0.020469852 -0.0026422946
-0.064999998 0.021427035 -0.0025131505
0.050247848 -0.0024313806 -0.0083370879
-0.053771488 0.017113725 -0.0051290961
0.064999998 0.022164986 -0.0024486862
-0.064999998 0.023638487 -0.0025587138
0.064999998 0.023236733 -0.0025555566
-0.064999998 0.014179319 -0.0029211752
0.057637125 0.02522251 -0.0030761031
-0.064999998 0.025492696 -0.0023606424
0.064999998 0.025595047 -0.0027255435
-0.064999998 0.026543628 -0.0026457543
0.064999998 0.026533857 -0.0024756663
-0.059098154 0.022939064 -0.0051102452
-0.057509501 0.022669151 -0.0054457071
-0.062813357 0.0275 -0.0021838031
-0.061644148 0.0275 -0.002904525
-0.023157693 0.0275 -0.0042053894
-0.059414692 0.0275 -0.0023769888
-0.058558706 0.023475261 -0.0047397162
-0.05733636 0.0275 -0.0025052559
-0.056264527 0.0275 -0.0024779453
-0.046380274 0.018998733 -0.0049210265
-0.054325208 0.0275 -0.0028298097
-0.053927291 0.0275 -0.0023039118
-0.022189749 0.0084146596 -0.010135384
-0.02426799 0.0275 -0.0028625838
-0.050519317 0.0275 -0.0024893358
-0.048715811 0.0275 -0.0036863065
-0.04834646 0.0275 -0.0023576235
-0.048897624 0.018236589 -0.0029305224
-0.046412826 0.0275 -0.0029106396
-0.044850547 0.027500002 -0.0046833563
-0.044339269 0.0275 -0.0025442229
-0.043381974 0.0275 -0.0026476979
-0.047997616 0.02096728 -0.010191272
-0.03711132 0.01019919 -0.0074850596
-0.031364772 0.017260596 -0.0061505553
-0.042537168 0.022648336 -0.004593493
-0.038374402 0.0275 -0.0024431122
-0.03761325 0.0275 -0.0026124471
-0.036495928 0.0275 -0.0025625143
-0.034116145 0.022509016 -0.0046071466
-0.034319423 0.0275 -0.0025471007
-0.033179253 0.0275 -0.002385207
-0.035708681 0.02121152 -0.0075325184
0.011546483 0.0082204584 -0.0066503277
-0.030424442 0.0275 -0.0021566206
-0.03207599 0.024014931 -0.0040501719
-0.016303059 0.017514093 -0.0054921634
-0.027436173 0.027500002 -0.0024554778
-0.026571749 0.027500002 -0.0025595762
-0.025427928 0.027500002 -0.0025717278
-0.012146774 0.024700178 -0.0031228126
-0.023530079 0.027500002 -0.0023384113
-0.022522207 0.0275 -0.0023898892
-0.021521045 0.027500002 -0.0024224962
-0.0026773149 0.017365072 -0.0063496735
0.0056872591 0.0275 -0.0041191308
-0.014609125 0.017036561 -0.0038568031
-0.017440815 0.0275 -0.0029992105
-0.016391415 0.0275 -0.0026833713
-0.0045422958 0.026641525 -0.0047364221
-0.014488564 0.027500004 -0.0024086975
-0.014744575 0.012546781 -0.012505248
-0.012586052 0.0275 -0.0027038744
-0.011363987 0.0275 -0.0025424133
-0.010724227 0.0275 -0.0024927291
-0.0092015257 0.027500002 -0.0024903982
0.0040255738 0.021460805 -0.010026
-0.0096684843 0.026079714 -0.0055174665
-0.0063331551 0.0275 -0.0027907698
-0.011711879 0.018612484 -0.0057484526
-0.0038203122 0.0275 -0.0021605201
-0.0015503098 0.0275 -0.0023180202
-0.0006301711 0.0275 -0.0026335618
0.00048779289 0.0275 -0.0024503802
0.012617524 0.017052203 -0.0039486708
0.002480614 0.0275 -0.0028567789
0.0035215965 0.027499998 -0.002435708
-0.013003522 0.012182023 -0.0097971531
-0.0037683398 0.023263693 -0.0081860973
0.028525654 0.0083685471 -0.017500002
0.0077180797 0.0275 -0.0026327712
0.0082541723 0.027500002 -0.0021805989
0.0092521226 0.0275 -0.0022425186
0.010467865 0.0275 -0.0026634736
0.021431563 0.014920384 -0.0083835311
-0.00011421554 0.022230303 -0.0054457276
0.013527168 0.027500002 -0.0024465581
-0.0053456617 0.017244035 -0.0027468444
0.017573966 0.025160443 -0.0046465052
0.01656992 0.027499998 -0.0022177096
0.0012329601 0.020494586 -0.0063453428
0.018057324 0.0275 -0.0021870881
0.019295551 0.0275 -0.0029173857
0.020714177 0.0275 -0.002331513
0.021898603 0.0275 -0.0026822716
-0.0042604059 0.0042151585 -0.0090127895
0.015123414 0.019642858 -0.0042051226
0.024246519 0.027500002 -0.0024080961
0.029548479 0.027500002 -0.0037557157
0.026502809 0.0275 -0.0024135201
0.017427146 0.026494518 -0.0064342706
0.028638702 0.0275 -0.0024574469
0.01427024 0.026670355 -0.0055279895
0.027479298 0.020625001 -0.0043516275
0.031445809 0.0275 -0.0023581027
0.00917916 0.022938114 -0.0070701577
0.033451743 0.0275 -0.0022936021
0.034632072 0.027500002 -0.002615978
0.035798397 0.027500002 -0.0024237277
0.042178907 0.017711271 -0.0053255553
0.037302006 0.0275 -0.0023817411
0.030597167 0.021675177 -0.005751668
0.040603653 0.0275 -0.0022717083
0.041670404 0.0275 -0.0024515176
0.04255813 0.027500002 -0.0027427785
0.01558545 0.0019639656 -0.0051361541
0.044283621 0.027500002 -0.002413945
0.038481668 0.014167892 -0.004219315
0.047794223 0.0275 -0.0027566049
0.048375446 0.0275 -0.0025728284
0.049526066 0.027500002 -0.0023435762
0.021978188 0.024975557 -0.0068049994
0.0525508 0.0275 -0.0024551454
0.05337847 0.0275 -0.0022238258
0.0547718 0.0275 -0.0026010638
0.055686362 0.0275 -0.0024161583
0.056698665 0.0275 -0.0023438516
0.057439737 0.0275 -0.0024174438
0.058763515 0.0275 -0.0029510658
0.059366971 0.027500002 -0.0024942064
0.040073078 0.023171624 -0.0076536955
0.045650717 0.021305084 -0.0061739143
0.062442899 0.027500004 -0.0026595206
0.028733741 0.011881421 -0.0097690057
0.064666897 0.027455341 -0.0025671504
-0.064693697 -0.027345078 -0.0013011908
-0.060164921 -0.019467138 -0.0067541692
-0.062480628 -0.0275 -0.0014089703
-0.033242922 -0.023734795 -0.0062545915
-0.060749862 -0.0275 -0.0016575453
-0.059108235 -0.0275 -0.0011062886
-0.058471117 -0.0275 -0.0016411742
-0.057237025 -0.0275 -0.0012884911
-0.055218168 -0.016951911 -0.0095047653
-0.054609239 -0.0275 -0.001147863
-0.053855885 -0.0275 -0.0014898356
-0.052747082 -0.027500002 -0.0015085227
-0.051420942 -0.027500004 -0.0015288142
-0.029653383 -0.019725727 -0.0067503676
-0.049525581 -0.0275 -0.0016972434
-0.048399098 -0.0275 -0.0015373399
-0.047726877 -0.0275 -0.0019154603
-0.046434373 -0.0275 -0.0013725499
-0.045742679 -0.0275 -0.0012681956
-0.044935569 -0.0275 -0.0019835811
-0.043606676 -0.0275 -0.0017024905
-0.042489603 -0.027500002 -0.0014960933
-0.041476935 -0.0275 -0.0017300956
-0.040412571 -0.027500002 -0.0016143768
-0.039554782 -0.0275 -0.0015084707
-0.038669284 -0.027500002 -0.0012400463
-0.037270881 -0.0275 -0.0016542654
-0.036562603 -0.0275 -0.0015710018
0.0079618869 -0.0080205323 -0.0057193688
-0.034678772 -0.027500002 -0.001484692
-0.028647481 -0.018448168 -0.0064199953
-0.046470832 -0.01398456 -0.0095356675
-0.03163822 -0.0275 -0.0014334582
-0.021824058 -0.019511027 -0.004187034
-0.032461293 -0.027487895 -0.0029336233
-0.031142501 -0.019657219 -0.0045786179
-0.027744014 -0.0275 -0.0010806697
0.0024869945 -0.0063044713 -0.009726325
-0.025592372 -0.0275 -0.0012426887
-0.024398664 -0.0275 -0.0011696136
-0.023604194 -0.027500002 -0.001580821
-0.022390231 -0.0275 -0.0016225366
-0.021462509 -0.027500002 -0.001549604
-0.020159878 -0.0275 -0.0013771816
-0.019019321 -0.0275 -0.0014663739
-0.018516177 -0.0275 -0.0012958855
-0.017550699 -0.0275 -0.0015344756
-0.016483827 -0.027500002 -0.0015290024
-0.015574379 -0.0275 -0.0017631815
0.0073503405 -0.024429403 -0.0068559339
-0.013579275 -0.027500002 -0.0014970442
-0.012489653 -0.027500002 -0.0015927459
-0.011950547 -0.0275 -0.0015635373
-0.020962317 -0.021599498 -0.0056133051
0.027358964 -0.022469595 -0.0097308625
-0.007479236 -0.0275 -0.0013999124
-0.0065745478 -0.0275 -0.0014598281
-0.0055506555 -0.0275 -0.0016821199
-0.0044246526 -0.027500002 -0.0015244285
-0.0035685021 -0.027500002 -0.0015174201
-0.0020797476 -0.0275 -0.0018078297
-0.0013382039 -0.027500004 -0.0016291265
-0.018730467 -0.01205723 -0.0093247518
0.00053135265 -0.0275 -0.0017266814
-0.011876836 -0.026305741 -0.004495021
0.0026581425 -0.027500002 -0.0015653931
0.0033490695 -0.027500002 -0.0014741117
0.0047277249 -0.0275 -0.0016840289
