# .PCD v0.7 - Point Cloud Data file format
VERSION 0.7
FIELDS x y z
SIZE 4 4 4
TYPE F F F
COUNT 1 1 1
WIDTH 1303
HEIGHT 1
VIEWPOINT 0 0 0 1 0 0 0
POINTS 1303
DATA ascii
0.032995194 0.042252935 -0.030088039
0.036954172 0.042212218 -0.030137666
0.037944026 0.042295799 -0.030035805
0.038888 0.042258486 -0.030081278
0.056582466 -0.022286616 -0.046765879
0.040577147 0.042126756 -0.030241817
0.042381141 0.042278048 -0.030057438
0.043410979 0.04224629 -0.030096143
-0.029797502 -0.023772752 -0.04597158
0.047200583 0.042225942 -0.030120935
0.035527788 -0.0034753666 -0.051657397
0.050881006 0.042292058 -0.030040365
0.039573677 0.031623028 -0.035539739
0.052192308 0.042278137 -0.030057333
0.053005956 0.042106442 -0.030266572
0.054951414 0.042233534 -0.030111689
0.056490131 0.042118173 -0.030252274
0.057592645 0.016524408 -0.049065471
0.062379189 0.042155281 -0.030207049
0.011291075 0.040817246 -0.031837694
0.064484894 0.042214714 -0.030134622
0.066458598 0.042143263 -0.030221701
0.0677673 0.042113703 -0.030257724
-0.067944765 -0.043101106 -0.029054392
0.0090122279 0.032929994 -0.039920948
-0.055474143 -0.043070294 -0.029091941
-0.045715816 -0.043052722 -0.029113356
-0.04308993 -0.043011688 -0.029163366
-0.041183993 -0.043072309 -0.029089484
-0.039682452 -0.043098629 -0.029057413
-0.036389098 -0.043021973 -0.029150827
-0.032309551 -0.043104075 -0.029050773
-0.024233479 -0.043088231 -0.029070081
-0.023973484 -0.043081444 -0.029078353
-0.022927349 -0.043116868 -0.029035185
-0.021955818 -0.043080475 -0.029079534
0.018485006 -0.015326349 -0.03971719
-0.012539793 -0.04313479 -0.029013343
-0.010382278 -0.043004442 -0.029172193
-0.0029650219 -0.043139212 -0.029007951
-0.0015586577 -0.043104656 -0.029050065
0.00066782534 -0.043035261 -0.029134635
0.022486687 -0.017325548 -0.048822422
0.0058392938 -0.043076165 -0.029084787
-0.060620565 0.042194597 -0.030159142
0.0075824559 -0.043075427 -0.029085688
0.029193556 -0.02844457 -0.043474123
0.02420486 -0.043133177 -0.029015306
0.025883254 -0.043003693 -0.029173106
0.026648179 -0.04308397 -0.029075276
0.030433105 -0.04310625 -0.029048122
0.037004851 -0.043133616 -0.029014774
0.03914386 -0.043085784 -0.029073063
0.044002913 -0.043016173 -0.029157896
0.045583244 -0.043077223 -0.029083496
0.050528761 -0.043045506 -0.029122148
0.052511215 -0.043013796 -0.029160798
0.053657509 -0.043090802 -0.029066948
0.060094673 -0.043065641 -0.029097615
0.061786443 -0.043007124 -0.029168926
0.028968031 -0.024602547 -0.045528047
0.064664811 -0.043081451 -0.029078348
0.065984122 -0.043107405 -0.02904672
-0.069535092 -0.042550255 -0.02960589
-0.068788022 -0.042564094 -0.029708844
-0.067354709 -0.04251042 -0.029774252
-0.066348381 -0.042455636 -0.029841017
-0.065782547 -0.042951293 -0.029236967
-0.063457116 -0.042604003 -0.029660203
-0.062224776 -0.042796265 -0.029425895
-0.061775647 -0.042550698 -0.029725164
-0.060456879 -0.042780541 -0.029445056
-0.059213094 -0.042594887 -0.029671311
-0.057680458 -0.042723831 -0.029514171
0.016015932 -0.019695623 -0.036657915
-0.053464919 -0.042735826 -0.029499553
-0.052691139 -0.042592548 -0.029674159
-0.050404109 -0.042643506 -0.029612064
-0.049656793 -0.042748865 -0.029483667
-0.048717506 -0.042477675 -0.029814158
-0.047683783 -0.042741314 -0.029492868
-0.046784125 -0.042449865 -0.029848047
-0.045720287 -0.042583838 -0.029684776
-0.042493798 -0.037605274 -0.03387763
-0.042491361 -0.042598192 -0.029667288
-0.041066065 -0.04298405 -0.029197045
-0.040183663 -0.042454477 -0.029842427
-0.039664414 -0.042749412 -0.029482991
-0.014069835 -0.016370825 -0.031798285
-0.035377961 -0.042554777 -0.029720197
-0.031212587 -0.04271362 -0.029526614
-0.040478982 0.009532121 -0.051061284
-0.028282132 -0.042457558 -0.029838672
-0.027956882 -0.042954333 -0.029233264
-0.02647038 -0.042569961 -0.029701687
-0.025230838 -0.042494413 -0.029793758
-0.024663292 -0.042695247 -0.029549005
-0.0222662 -0.042592552 -0.029674161
-0.020875487 -0.042828187 -0.029386993
-0.018644359 -0.042346898 -0.029973537
-0.01740833 -0.042689487 -0.029556025
0.0074803997 0.0044679353 -0.051559549
0.0014229484 -0.031147784 -0.030788338
-0.032585107 -0.0025040638 -0.032529265
-0.013144314 -0.042769074 -0.029459035
-0.012776781 -0.042444006 -0.029855194
-0.011136751 -0.042721331 -0.029517218
-0.018437061 -0.0097500226 -0.037915427
-0.0082367323 -0.042697515 -0.029546238
-0.0070750695 -0.042977337 -0.029205229
0.0051060501 -0.026969783 -0.03679762
-0.0055616973 -0.042638853 -0.029617729
-0.0036318786 -0.042980313 -0.029201604
-0.0024704523 -0.042773001 -0.02945425
-0.019652972 -0.023988683 -0.036513299
-0.0005175285 -0.042679928 -0.029567674
0.00054714456 -0.042414945 -0.029890608
0.0012356354 -0.042649191 -0.029605135
0.0026108958 -0.042378657 -0.029934835
0.027868796 -0.012545587 -0.044136565
0.0041679926 -0.042647693 -0.029606961
0.0056001265 -0.042779803 -0.029445954
0.0016489986 0.037623785 -0.035729513
0.0087225167 -0.042621128 -0.029639333
0.0095739244 -0.04263173 -0.029626414
0.010713549 -0.042637534 -0.02961934
0.011368852 -0.042891212 -0.029310182
0.012564398 -0.042981006 -0.029200755
0.013583283 -0.042673569 -0.029575428
-0.0071440395 -0.039625444 -0.033290125
0.017410018 -0.04255075 -0.029725101
0.018125184 -0.04269293 -0.029551828
0.020217735 -0.042760804 -0.029469112
-0.023173373 -0.02831576 -0.039652277
-0.0069725341 -0.040454682 -0.032130338
-0.0026620913 -0.033766139 -0.036109336
0.024832767 -0.042654969 -0.029598095
0.026590154 0.037073076 -0.036400646
0.026268184 -0.042711869 -0.029528746
0.027722351 -0.042712264 -0.029528264
0.049441133 -0.024564046 -0.034582645
0.02997344 -0.042965818 -0.029219264
-0.0092041828 -0.019658569 -0.035975926
0.031313203 -0.042410288 -0.029896278
0.032453947 -0.04267969 -0.029567968
-0.00055684708 -0.030000731 -0.039267976
0.04252217 -0.035298597 -0.031247068
0.03675507 -0.042732958 -0.029503047
0.037251331 -0.042977657 -0.029204838
-0.042019464 0.041859552 -0.030567452
0.014975392 -0.037986498 -0.033689037
0.040064707 -0.042566266 -0.029706195
0.024907196 -0.029429957 -0.03290458
0.023437085 -0.023972163 -0.040572882
0.043427978 -0.042561937 -0.029711466
0.045387551 -0.042515617 -0.029767919
0.048175737 -0.042890094 -0.029311549
0.049568519 -0.042600282 -0.029664738
0.05162888 -0.042388119 -0.029923297
0.052150689 -0.042954657 -0.029232873
0.054180983 -0.042637758 -0.029619066
0.055473357 -0.042601876 -0.029662803
0.056301072 -0.042530976 -0.029749202
0.052906971 -0.011859739 -0.039016638
0.062571473 -0.032117281 -0.036272123
0.059095558 -0.042355269 -0.029963329
0.060682934 -0.042649366 -0.029604921
0.061747462 -0.042822089 -0.029394429
0.062567368 -0.042944402 -0.029245367
0.06331145 -0.042647198 -0.029607564
0.064310193 -0.042716425 -0.029523198
0.065713212 -0.042790733 -0.029432634
0.067497186 -0.042624116 -0.029635698
0.068390533 -0.042820159 -0.029396776
0.047102787 -0.037986517 -0.034400184
-0.036386885 -0.034987461 -0.036405493
0.07 -0.041374959 -0.029242285
0.07 -0.040264834 -0.029762097
-0.035000004 -0.030700961 -0.034824997
0.070000008 -0.039804924 -0.029666699
-0.070000008 -0.038520768 -0.02965413
0.07 -0.038614385 -0.029499415
-0.07 -0.037630327 -0.02972962
0.029063236 -0.035184022 -0.033879593
0.066530138 -0.035494849 -0.032713175
-0.070000008 -0.03595496 -0.029139675
-0.07 -0.034357253 -0.029611154
0.069999993 -0.034668718 -0.029548815
-0.07 -0.033669792 -0.029817868
-0.07 -0.032772016 -0.029625593
0.070000008 -0.032480787 -0.029544568
-0.07 -0.031440686 -0.029757094
0.049070492 -0.033425391 -0.030670801
-0.07 -0.03049493 -0.029215841
0.07 -0.030770287 -0.029611815
-0.07 -0.029811826 -0.029283918
0.07 -0.029443167 -0.02940008
-0.041906845 -0.016166715 -0.03697601
-0.07 -0.02755204 -0.029351331
0.07 -0.027525896 -0.029327488
-0.07 -0.026503364 -0.029396418
0.0030995545 0.01943209 -0.048183866
-0.034353819 -0.021462059 -0.033907488
-0.07 -0.024475582 -0.029603567
-0.070000008 -0.023586733 -0.029369619
-0.016082687 0.018223107 -0.048550431
0.070000008 -0.022619322 -0.029657995
-0.059302133 -0.0099385232 -0.030747849
0.070000008 -0.020455215 -0.029565124
-0.07 -0.018352104 -0.029984731
0.07 -0.017318806 -0.029352276
-0.0061873086 -0.024857525 -0.03456521
0.07 -0.016011059 -0.029836971
-0.07 -0.015567474 -0.029240027
0.07 -0.016826216 -0.032901581
-0.07 -0.013960667 -0.029787319
0.07 -0.013445495 -0.029688304
-0.07 -0.012081936 -0.029457623
-0.0035940148 -0.02376215 -0.045977242
-0.07 -0.011185892 -0.029242747
0.07 -0.011485243 -0.029946383
0.07 -0.0046998537 -0.043728404
0.07 -0.010166423 -0.029735146
-0.051084068 -0.010961632 -0.033364933
0.07 -0.0093898382 -0.029509753
-0.07 -0.0080828145 -0.029080208
0.023426732 -6.1816849e-05 -0.03597343
0.070000008 -0.0082711028 -0.029753713
0.066368893 0.0022571059 -0.051777497
0.070000008 -0.007500913 -0.029506061
0.07 -0.0064460142 -0.029250748
-0.07 -0.0052529937 -0.029137045
-0.070000008 -0.0045880284 -0.02940397
0.070000008 -0.0046558119 -0.029480223
0.07 -0.0028481856 -0.029391943
-0.032875024 -0.013008419 -0.032206655
0.07 -0.0014949017 -0.02937635
-0.07 -0.00017395965 -0.029222723
0.070000008 -0.00047706102 -0.029443353
-0.04489702 0.0055308212 -0.032229073
0.069999993 0.00066299987 -0.02950887
-0.07 0.001456135 -0.029610118
0.0052280482 0.0056641931 -0.040517144
0.070000008 0.0014967294 -0.029995352
-0.07 0.0029636098 -0.029521761
0.07 0.002778383 -0.029347893
-0.070000008 0.003436499 -0.02952349
0.07 0.0039955182 -0.029883627
-0.07 0.004721418 -0.029442187
0.07 0.0045118965 -0.029475614
0.070000008 0.0049212547 -0.029892141
0.07 0.0056019379 -0.029295288
-0.07 0.0060412558 -0.029162776
0.07 0.0060642348 -0.029299846
-0.07 0.0078248698 -0.029281018
0.07 0.0077735367 -0.029151432
0.07 0.0088483598 -0.029823659
0.070000008 0.0095420461 -0.029524796
0.052754786 -0.024278594 -0.045701217
0.07 0.011599004 -0.029477865
0.054882579 0.013694528 -0.036046658
-0.07 0.013801096 -0.029340742
0.070000008 0.013410222 -0.029583549
-0.063859187 0.0085278042 -0.036820635
0.07 0.014531172 -0.029639266
-0.055833083 0.021595262 -0.032483183
0.066113941 0.0054838732 -0.036389366
-0.07 0.016607985 -0.029257223
0.07 0.01661665 -0.02973807
0.07 0.01756864 -0.029028142
0.069999993 0.018137667 -0.029044313
0.062442996 0.035764143 -0.037595365
0.069999993 0.019778442 -0.029005772
-0.07 0.020518314 -0.029865602
0.051108919 0.015667377 -0.037021678
0.049052812 0.010729657 -0.033997133
-0.07 0.022283409 -0.029510792
0.028099572 0.019997815 -0.047989704
-0.07 0.023467176 -0.029815387
0.045425572 0.014080837 -0.036632121
0.069999993 0.024194445 -0.029618986
0.043772031 -0.0044036843 -0.034571528
-0.07 0.026360452 -0.029786605
0.069999993 0.026304461 -0.029307678
0.0038298499 0.019177072 -0.039886665
-0.07 0.028590895 -0.029826177
0.07 0.028652944 -0.029362515
-0.0063829627 0.020872043 -0.038208399
0.069999993 0.029447207 -0.029243469
-0.046852648 0.01352578 -0.031310789
0.07 0.030433606 -0.029345462
-0.07 0.031987667 -0.02916405
0.070000008 0.031693529 -0.029510897
-0.043171495 0.014236647 -0.040588524
0.00050132349 -0.022718243 -0.046535186
-0.07 0.03397556 -0.029985502
0.07 0.033365868 -0.029272508
-0.07 0.034407102 -0.029294532
0.07 0.034336109 -0.029302735
0.07 0.035287768 -0.029845338
-0.07 0.036519095 -0.029556723
-0.07 0.037312321 -0.029901145
0.07 0.03757998 -0.029064171
0.070000008 0.038292862 -0.029245531
0.027900279 0.016478805 -0.047943957
0.07 0.041819699 -0.029494721
-0.07 0.042514864 -0.029382609
-0.067717701 0.042822886 -0.029393449
-0.066842787 0.042872626 -0.029332839
-0.065180533 0.042648774 -0.029605642
-0.064671755 0.042671457 -0.029577997
-0.053606458 0.024246018 -0.035804689
-0.044292986 0.0023281034 -0.032290556
-0.061116051 0.042747408 -0.029485438
-0.033172142 0.041565459 -0.030925861
-0.059993528 0.042431381 -0.029870572
-0.040877201 0.016416669 -0.032059934
-0.057286344 0.042538121 -0.029740494
-0.056125436 0.042354845 -0.029963847
-0.055602144 0.042990126 -0.029189641
-0.064532176 0.013191573 -0.05007647
-0.053729992 0.042421732 -0.029882338
-0.052696422 0.042560171 -0.029713616
-0.05181282 0.042449117 -0.029848957
-0.050359227 0.04238829 -0.029923089
-0.048495077 0.042632826 -0.029625079
-0.025300061 0.040627655 -0.031785101
-0.046412393 0.042787828 -0.029436175
-0.010392824 0.0028080959 -0.032877058
-0.043487184 0.042824 -0.02939209
-0.039582551 0.042414412 -0.029891251
-0.038442515 0.042713001 -0.029527374
-0.037628047 0.042755783 -0.029475229
-0.035148561 0.042363338 -0.029953498
-0.034331683 0.042488307 -0.029801199
-0.033780321 0.042471021 -0.029822266
-0.031912751 0.042605031 -0.029658951
-0.030522007 0.042622037 -0.02963822
0.0084021576 0.019672742 -0.037989199
-0.02870415 0.042496413 -0.029791323
-0.02754375 0.042957637 -0.029229235
-0.026284862 0.042765204 -0.029463753
-0.025214953 0.042637926 -0.029618867
-0.024241118 0.042882413 -0.029320907
-0.01993363 0.030583251 -0.033486031
-0.021475824 0.042625263 -0.029634293
-0.020397726 0.04269075 -0.029554483
-0.019563491 0.042503677 -0.02978247
-0.018810742 0.042676732 -0.02957157
-0.017281359 0.042747851 -0.029484896
-0.016511854 0.042760957 -0.029468924
0.0067297551 0.032453891 -0.032895375
-0.013265955 0.042332742 -0.029990781
-0.012996282 0.042390198 -0.02992077
-0.010620221 0.042621892 -0.029638402
-0.0098284502 0.042342052 -0.029979439
-0.0074890838 0.042752523 -0.029479207
0.014762474 -0.021532532 -0.047168922
-0.0034701393 0.042793036 -0.029429836
-0.04910814 0.019556701 -0.040770806
0.0050651245 -0.018744338 -0.047473289
0.0014803879 0.042419758 -0.029884746
0.0023191876 0.042623337 -0.02963664
0.0032083374 0.042488419 -0.029801065
0.0044401027 0.042856883 -0.029352028
0.0053801369 0.042640109 -0.029616203
-0.012860901 0.022099569 -0.035727702
0.0078717172 0.042918276 -0.029277205
0.0096804695 0.042645525 -0.029609606
0.023267608 0.022671353 -0.031317018
0.011680504 0.042497285 -0.029790264
0.0043858257 0.030608462 -0.035102017
0.0083167218 0.035349321 -0.036551535
-0.027192004 0.0069770236 -0.034121763
0.016444013 0.042903475 -0.029295245
-0.059370719 0.022398684 -0.046706218
0.020598058 0.042584363 -0.029684138
0.022579793 0.01835851 -0.033793952
0.023042036 0.04252531 -0.029756106
0.024516456 0.042554636 -0.029720364
0.025464633 0.042524073 -0.029757611
0.026413262 0.042764924 -0.029464092
0.01431556 0.036252774 -0.034423634
0.028382529 0.042622045 -0.029638216
0.029895388 0.042852551 -0.029357303
0.0021193177 0.042569958 -0.029701695
0.031549644 0.042498574 -0.029788693
0.021923708 0.037312523 -0.033324335
0.041759633 0.032174341 -0.036663029
0.021166833 0.029052515 -0.032637898
0.021286799 0.014275091 -0.033902295
0.013778946 0.0045056837 -0.051555827
0.0042678863 0.015832219 -0.031251498
0.041428976 0.042797491 -0.029424399
-0.013327777 0.028726334 -0.030901711
0.044494003 0.042634115 -0.029623508
0.045456845 0.042727046 -0.029510252
0.046581589 0.042596474 -0.029669374
0.047235828 0.04254514 -0.029731935
-0.020805147 0.019742165 -0.037871603
0.050440602 0.042881649 -0.02932184
0.052146062 0.042485602 -0.029804496
0.053652123 0.042613838 -0.029648222
0.054524846 0.042863097 -0.029344449
0.0568076 0.041074485 -0.031311747
0.060569309 0.04286173 -0.029346116
0.061616771 0.042885948 -0.0293166
0.062120371 0.042630896 -0.029627429
0.063857242 0.042648785 -0.029605631
0.064368486 0.042546757 -0.02972997
0.065626822 0.042661201 -0.029590497
0.066036627 0.042393129 -0.029917192
0.018845744 0.024524195 -0.04053057
0.068675168 0.042803001 -0.02941769
0.069314413 0.042811804 -0.029406961
-0.067043059 0.043075167 -0.029086003
-0.065991662 0.043127391 -0.02902236
-0.064776689 0.043098371 -0.029057723
-0.058499768 0.043002762 -0.029174237
-0.055162415 0.043060374 -0.02910403
-0.054919198 0.043104988 -0.029049663
-0.050847445 0.043012809 -0.029161997
-0.045381799 0.043036871 -0.029132674
-0.043771096 0.043074001 -0.029087424
-0.042148914 0.043138359 -0.029008992
-0.05914579 0.031199211 -0.041341159
-0.035489544 0.043128286 -0.029021269
-0.032646157 0.043061525 -0.029102633
-0.028370254 0.043124594 -0.029025773
-0.026609069 0.043009579 -0.029165942
-0.023112036 0.043046683 -0.029120715
-0.021723783 0.043068182 -0.029094517
-0.019861737 0.043091938 -0.029065559
0.035364851 -0.0067555634 -0.0513344
-0.013556511 0.043059804 -0.029104734
-0.0091277901 0.043006543 -0.029169627
-0.0086986916 0.043060329 -0.029104086
-0.007478619 0.043017153 -0.029156707
-0.0069477996 0.043131113 -0.029017819
-0.0047361003 0.043114394 -0.029038193
0.038517181 0.029366435 -0.042845055
0.0049174661 0.043030962 -0.029139876
0.005533766 0.043035284 -0.029134605
0.012226802 0.043099109 -0.029056828
0.018335719 0.043078881 -0.029081473
0.022405595 0.043130931 -0.029018044
0.025714787 0.043078825 -0.029081549
0.034854028 0.043102011 -0.029053288
0.035808474 0.043049488 -0.029117296
0.036245085 0.043008931 -0.029166717
0.038227774 0.043091457 -0.029066155
0.044199552 0.043116905 -0.029035142
0.045417264 0.043078154 -0.029082367
0.054039188 0.043115433 -0.02903693
0.057298906 0.043050297 -0.029116306
0.061209772 0.043072358 -0.029089425
-0.0044301003 -0.017757697 -0.04869137
-0.069681779 -0.043450475 -0.028338231
-0.068423465 -0.043396268 -0.028590204
-0.06727723 -0.043393001 -0.028596314
-0.066570833 -0.043218236 -0.028911648
-0.065417618 -0.043309998 -0.028751578
-0.064683236 -0.043437324 -0.028499227
-0.063006207 -0.043315776 -0.028740773
-0.062768698 -0.043528777 -0.028342342
-0.061316442 -0.04333888 -0.028697554
-0.059560619 -0.043441758 -0.028505109
-0.058803007 -0.04345426 -0.028481727
-0.057486728 -0.043496747 -0.028402248
-0.049625427 -0.0052959491 -0.034081321
-0.054575648 -0.043379769 -0.028612861
-0.052123312 -0.043432582 -0.028522283
-0.051515125 -0.043669406 -0.028079279
-0.050639015 -0.043355823 -0.028640289
-0.039514702 -0.0079607284 -0.036044631
-0.009033489 -0.040729936 -0.031748503
-0.017721545 0.0077584302 -0.04852993
-0.070000008 -0.013655099 -0.035612412
-0.044406854 -0.043305799 -0.028759427
-0.04672426 -0.013143074 -0.038559433
0.01102351 0.041364901 -0.031170275
-0.040549502 -0.043282792 -0.028802481
-0.037338715 -0.043314286 -0.028734852
-0.036275033 -0.04356274 -0.028278805
-0.035568327 -0.043494921 -0.028405663
0.032224599 -0.037111972 -0.036353249
0.047138307 0.00674426 -0.051335514
0.06085375 0.00037749019 -0.051962789
-0.026684111 -0.043479256 -0.028434977
-0.025081789 -0.043419834 -0.028546119
-0.024530519 -0.043567419 -0.028270051
-0.023463823 -0.043545283 -0.028311459
-0.017891971 -0.02740906 -0.03015985
-0.011560066 -0.033310525 -0.037220545
-0.02050079 -0.043403372 -0.028565522
-0.011352301 -0.025004424 -0.033120606
0.0017851917 -0.0062239859 -0.034651268
-0.034119755 -0.0054202266 -0.03189525
-0.016476424 -0.043697298 -0.028027106
-0.015475626 -0.043419167 -0.028547369
-0.014962679 -0.043710835 -0.028001783
-0.013573675 -0.043634847 -0.028143926
-0.012686905 -0.043444209 -0.028500525
-0.011224742 -0.043561079 -0.02828192
-0.01084806 -0.043456014 -0.028478434
-0.0090970518 -0.043401185 -0.028581001
-0.0085704904 -0.043436363 -0.028515205
-0.0076188482 -0.043347064 -0.028682241
-0.024955507 -0.035626881 -0.036142889
-0.0053145532 -0.04366564 -0.02808632
-0.0045419033 -0.043479547 -0.028434426
-0.0034902692 -0.043595243 -0.028218005
-0.001568281 -0.043353803 -0.028669646
-0.00048429018 -0.043423526 -0.028539209
0.00084892882 -0.043404497 -0.028574806
0.0014774817 -0.043466128 -0.028459523
0.0025046621 -0.043441962 -0.028485689
0.020796891 -0.028235886 -0.039350439
0.0091649499 0.030488424 -0.039492756
0.0060722502 -0.043657053 -0.028102387
0.0078117978 -0.043185733 -0.028951257
0.0085106408 -0.043588433 -0.028230747
-0.0013724107 0.040919136 -0.031713527
-0.01150291 -0.018597351 -0.039702125
0.046151094 -0.032542676 -0.040238768
0.013696225 -0.043346159 -0.028683942
0.014894568 -0.043500416 -0.02839539
0.015636237 -0.043475933 -0.028434787
0.047176596 0.0094013438 -0.051074147
0.017215675 -0.043697264 -0.028027169
0.018206444 -0.043573443 -0.028258786
0.019731112 -0.043700129 -0.028021807
0.020395871 -0.043454941 -0.02848045
0.032527991 -0.016087178 -0.030372821
0.023716763 -0.043541864 -0.028317859
0.024186091 -0.043286681 -0.028772432
0.026547179 -0.043567147 -0.028270561
0.0096551869 -0.02356514 -0.030696558
0.046485886 0.024561955 -0.04554975
0.029530888 -0.043454722 -0.028470024
0.013573304 -0.015933186 -0.03033575
-0.0084426962 -0.010268046 -0.037598062
-0.015820285 -0.0055098422 -0.034475628
0.032265306 -0.031262942 -0.032499552
0.035451036 -0.043279748 -0.028801585
0.0058472324 -0.041375719 -0.031096831
0.023669882 -0.021661265 -0.032653328
0.040388085 -0.043628026 -0.028156685
0.017038712 -0.014544571 -0.033981193
0.042645521 -0.043308131 -0.028737064
0.04327317 -0.043605465 -0.028198877
0.037345722 -0.015760686 -0.032931175
0.045919657 -0.043430991 -0.028525248
-0.012386875 0.031036098 -0.040994853
0.049581602 -0.043592088 -0.028223913
0.036377393 -0.027405553 -0.030851915
0.045187663 -0.042181205 -0.030066321
-0.01895595 0.030704513 -0.03895985
0.053797789 -0.043287098 -0.028794413
0.054553542 -0.043408722 -0.028566908
0.055400379 -0.043357518 -0.028662695
0.030516164 -0.027242512 -0.0331278
0.058326341 -0.043487087 -0.028420322
0.059337813 -0.043509323 -0.028378725
0.060516857 -0.043257505 -0.028833967
0.061452691 -0.043616876 -0.028177544
0.0088084275 0.020242903 -0.047858685
0.064968541 -0.04334807 -0.028680358
0.065227196 -0.043341901 -0.028691905
0.066946797 -0.04332738 -0.028719066
0.024468997 -0.026484201 -0.039843321
0.027543206 -0.03671927 -0.036790751
0.06980671 -0.043306097 -0.028702833
-0.070000008 -0.042845882 -0.028195744
0.07 -0.042626906 -0.028555185
0.0056715594 0.0099903494 -0.04756286
-0.07 -0.041984074 -0.028069496
0.052654952 -0.0080309696 -0.036819238
0.069999993 -0.040347535 -0.028396461
-0.070000008 -0.039446071 -0.028814629
0.07 -0.039445493 -0.028183253
-0.054192338 0.0047955746 -0.051527251
-0.07 -0.038973469 -0.028567519
0.059667148 -0.022256335 -0.028579447
-0.07 -0.037104581 -0.028233455
-0.07 -0.036721446 -0.028515887
0.07 -0.036704421 -0.028729126
-0.0073481239 -0.017441908 -0.040041149
0.07 -0.035515632 -0.028772973
-0.07 -0.034806453 -0.028877173
-0.070000008 -0.033259951 -0.028989062
0.070000008 -0.033177644 -0.028202856
-0.07 -0.03250559 -0.02832173
0.07 -0.032445878 -0.028223867
-0.07 -0.031789929 -0.028856361
0.07 -0.031231744 -0.028254867
-0.051878717 -0.014187599 -0.033986282
0.07 -0.030585229 -0.028625211
-0.07 -0.029827017 -0.028813235
0.070000008 -0.02923676 -0.028586363
-0.07 -0.028630432 -0.028836489
0.07 -0.028747244 -0.028500691
-0.07 -0.027933769 -0.028562099
0.070000008 -0.027367843 -0.028763173
0.07 -0.02204481 -0.035290893
0.07 -0.025456725 -0.028113313
-0.070000008 -0.02464167 -0.028204225
-0.010551269 0.013716527 -0.049875896
0.070000008 -0.024074223 -0.028588157
-0.07 -0.023146937 -0.028764954
0.07 -0.023839394 -0.028116072
-0.07 0.0056653097 -0.035064749
0.07 -0.022839891 -0.028777231
-0.07 -0.021579364 -0.028076079
0.069999993 -0.021740369 -0.028782036
-0.057817005 -0.023037944 -0.046364315
0.07 -0.019711131 -0.028958095
-0.07 -0.01850212 -0.028838594
0.07 -0.018716611 -0.02886533
-0.07 -0.017414164 -0.02846694
-0.07 -0.016603997 -0.028348332
0.069999993 -0.01651958 -0.028443091
-0.07 -0.015813863 -0.02891138
-0.05869687 -0.0042458875 -0.051581439
-0.07 -0.014461385 -0.028120119
0.07 -0.014940312 -0.028800122
-0.070000008 -0.013406557 -0.028642863
0.069999993 -0.013306725 -0.028188489
0.07 -0.012248311 -0.028743973
-0.070000008 -0.011503754 -0.028352346
-0.047615424 -0.026481347 -0.028904192
0.07 -0.010729644 -0.028741023
-0.07 -0.009103748 -0.028715603
0.069999993 -0.0086979074 -0.028693518
-0.07 -0.007879518 -0.028806923
-0.052141089 0.00035582445 -0.031739857
0.070000008 -0.006385298 -0.028532982
-0.051502284 0.026422095 -0.044555329
0.07 -0.0052371528 -0.028004535
-0.07 -0.0042026024 -0.028642543
0.070000008 -0.0042127259 -0.028652377
-0.070000008 -0.0032035448 -0.028644869
0.070000008 -0.0033907369 -0.028029542
-0.040418971 -0.0054762848 -0.035966747
0.069999993 -0.0026517275 -0.028136201
0.070000008 -0.001389672 -0.028433165
0.069999993 -0.00066591986 -0.028884511
-0.07 0.0018366631 -0.028108018
0.07 0.0014551859 -0.028566297
0.043775294 0.025170993 -0.045224156
-0.069999993 0.0025373027 -0.028294817
0.07 0.002384508 -0.028625656
-0.069999993 0.0037098145 -0.028606145
0.07 0.0032128571 -0.028222719
0.070000008 0.0033418827 -0.028490566
-0.07 0.0058377758 -0.028625406
-0.07 0.0066224067 -0.028586309
0.07 0.0065507027 -0.028663587
0.07 0.0076227719 -0.028193368
-0.027002459 0.0067012082 -0.036278404
0.07 0.008459093 -0.028464463
-0.07 0.0098602064 -0.028926188
0.07 0.0094661284 -0.028150745
0.053920291 -0.0058501437 -0.037486129
-0.07 0.011583963 -0.028311197
-0.002642408 0.027652377 -0.043897625
-0.070000008 0.012253478 -0.028421
-0.07 -0.0044222809 -0.035116039
-0.07 0.013166197 -0.028709164
0.07 0.013068559 -0.028543852
0.070000008 0.013425999 -0.028492216
-0.026973983 0.016292643 -0.034959927
-0.070000008 0.015695494 -0.028485319
-0.070000008 0.016379345 -0.028598832
0.07 0.016145213 -0.028399408
0.023042036 0.04252531 -0.029756106
0.070000008 0.017643828 -0.028291237
-0.07 0.018442567 -0.028205004
0.064129665 0.01439246 -0.035467036
-0.069999993 0.019469965 -0.028884944
0.026589077 0.016454756 -0.039022014
-0.07 0.020514533 -0.028673984
0.070000008 0.020952525 -0.028934605
-0.070000008 0.021603823 -0.028290864
-0.07 0.022465128 -0.028639268
0.069999993 0.02269949 -0.028506882
-0.070000008 0.014392669 -0.033541411
0.05941334 0.023900954 -0.031883806
-0.07 0.024619585 -0.02891697
0.07 0.024919208 -0.028477598
-0.03991745 0.025982499 -0.033769198
0.07 0.02541299 -0.028312717
-0.07 0.026293103 -0.02873205
0.07 0.026672069 -0.028209414
-0.07 0.02702732 -0.02858137
0.035333913 -0.0076304711 -0.028943595
0.07 0.028656805 -0.028646195
-0.070000008 0.029665399 -0.028612984
0.07 0.029385686 -0.028872354
0.07 0.030658981 -0.028473096
-0.070000008 0.031441305 -0.028452735
0.014782902 -0.031025473 -0.041483723
0.07 0.032536503 -0.028480522
-0.07 0.03320989 -0.028322741
0.066610061 0.035635151 -0.032254256
-0.021605687 0.033934787 -0.03909646
0.07 0.034513757 -0.028272016
0.070000008 0.03477712 -0.028738879
-0.07 0.035274275 -0.028665749
0.0311969 0.0044740858 -0.036286499
-0.040598921 0.0049868347 -0.051508628
0.070000008 0.036432248 -0.028271995
0.07 0.037710857 -0.028112482
-0.07 0.038508423 -0.028684322
0.034156058 0.025038946 -0.03626544
0.070000008 0.03839507 -0.028413001
-0.07 0.039696887 -0.028740406
0.052831173 0.038083136 -0.03245597
0.07 0.040399507 -0.028656472
-0.069999993 0.042309709 -0.028472716
0.07 0.042775337 -0.028575383
-0.038673114 0.027033616 -0.039683208
-0.068350263 0.043493196 -0.028408885
-0.067932487 0.043266214 -0.028833475
-0.066474125 0.04349865 -0.028398694
-0.039202146 0.032183319 -0.034616437
-0.049969099 0.042614639 -0.029553268
-0.06308125 0.043430172 -0.028526785
-0.062506787 0.043534562 -0.028331514
-0.061927792 0.043189928 -0.028946146
-0.060560994 0.043308854 -0.02875372
-0.05952318 0.043454655 -0.028480984
-0.058489174 0.043456756 -0.028477065
0 -0.019692628 -0.039071403
-0.055326749 0.043611292 -0.028187983
-0.05461086 0.043385744 -0.028605599
-0.032088898 0.0161264 -0.049186148
-0.052442413 0.043153845 -0.028990118
-0.051547997 0.043360684 -0.028656764
-0.050679222 0.043388762 -0.028590025
0.0038924962 0.030842531 -0.038394742
-0.026995301 0.043406036 -0.028542191
-0.045402311 0.043299656 -0.0287384
-0.044793904 0.043208361 -0.028923679
-0.04338906 0.043310702 -0.028747482
-0.042448997 0.04321539 -0.028915118
-0.059302133 -0.0099385232 -0.030747849
-0.0403702 0.043448403 -0.028487891
-0.038441204 0.043387994 -0.028605692
-0.021436101 0.036453355 -0.034546681
-0.036434121 0.04337829 -0.028623832
-0.035685472 0.043540776 -0.028319892
-0.034201205 0.043408163 -0.028567949
-0.033648193 0.04321317 -0.028917823
-0.032814015 0.043360133 -0.028635785
-0.0057090474 0.033678766 -0.031169256
-0.030779384 0.043392777 -0.028581887
-0.02918084 0.043254804 -0.028854828
-0.014122105 0.03333164 -0.035812832
0.07 -0.00034283579 -0.0461822
-0.026723258 0.043664832 -0.028087832
-0.024744606 0.043350283 -0.028676223
-0.023900688 0.043498594 -0.028398793
0.07 -0.0097078644 -0.040640809
-0.0050365068 0.040398195 -0.031726561
-0.020095497 0.043514304 -0.028369404
-0.019174388 0.043455139 -0.028480083
-0.012987746 0.008385526 -0.04053206
-0.016213533 0.043310922 -0.028719431
-0.013457475 0.01387631 -0.03413979
-0.014745573 0.043375015 -0.02862996
0.013611434 0.020831734 -0.034208577
-0.012158154 0.043591931 -0.028224204
-0.0093332417 0.043553989 -0.028295174
0.039967414 -0.04175882 -0.030690219
-0.0021361932 0.017832965 -0.03232133
-0.0069112591 0.043584518 -0.028238073
-0.004298158 0.043532375 -0.028335609
-0.0033151582 0.043240901 -0.028880831
-0.0027992167 0.043579459 -0.028247524
-0.0013573982 0.043160949 -0.02898146
-0.00033026561 0.043535344 -0.028330047
0.00087550655 0.043246016 -0.028871268
0.0012023213 0.043373432 -0.02860445
0.002420947 0.043566555 -0.028271675
0.021867473 -0.011403641 -0.04590904
0.0046824021 0.043410912 -0.028555699
0.0056018829 0.043190688 -0.028945224
-0.026986847 0.042528279 -0.02973824
0.0078563988 0.043501496 -0.028393365
0.008533299 0.043394707 -0.028593134
0.0096744001 0.043508489 -0.028380293
0.010218089 0.043544758 -0.028312443
0.01130903 0.043310326 -0.028750975
0.014140751 0.031062176 -0.030700875
0.013580985 0.043351553 -0.028663507
0.015596929 0.043548487 -0.028305462
0.016417054 0.043693691 -0.028033847
0.017552167 0.043295868 -0.028766098
0.019171573 0.043431539 -0.028524235
0.032083727 0.02258146 -0.039976705
0.021723364 0.043260686 -0.028843824
0.034701437 0.018008623 -0.032711018
0.023230847 0.04345151 -0.028486867
0.024665631 0.043210164 -0.028921487
-0.06826131 -0.040442593 -0.032294281
0.026309833 0.043386243 -0.02860067
0.027508304 0.043368757 -0.028625883
0.031234886 0.037747025 -0.033808269
0.031300224 0.043339003 -0.028697321
0.032950431 0.043668747 -0.028080516
-0.0010530216 0.030751619 -0.029302901
0.034549542 0.043148573 -0.028996544
0.035279557 0.043337416 -0.028700285
0.03663813 0.043322705 -0.028727811
0.040675867 0.012518051 -0.050280862
0.039365787 0.043499343 -0.028393369
0.040623263 0.043423705 -0.028525412
0.04160301 0.043541364 -0.028318796
0.042553145 0.043397773 -0.028587388
0.044374987 0.043682929 -0.028053982
0.016416645 5.6156889e-05 -0.028941285
0.046581853 0.04361137 -0.028187836
0.012034889 0.018488238 -0.032438997
0.048700437 0.043360002 -0.028658044
0.026771052 0.037597716 -0.032811031
0.050662983 0.043457475 -0.028475713
0.051621944 0.043270689 -0.028825108
0.020826399 0.017355643 -0.039951462
0.053787384 0.043301705 -0.028742712
0.054301105 0.043459203 -0.028472483
0.055627625 0.043425806 -0.028534953
0.025978865 -0.0022608591 -0.051777124
0.058046728 0.043354966 -0.028667461
0.059381522 0.043316759 -0.02872647
0.030134566 0.041680649 -0.030559944
0.016912438 0.023586938 -0.038053215
0.063814893 0.043180797 -0.028957272
0.064902022 0.043423984 -0.028538356
0.0019460097 0.021850294 -0.040458858
0.057033505 0.03677965 -0.030542023
0.060518291 0.016957 -0.039999109
0.068660915 0.043618273 -0.028174926
0.06977997 0.043535642 -0.028329492
-0.068852372 -0.044172954 -0.027137358
-0.023975667 -0.034300901 -0.036452949
-0.065443687 -0.044110145 -0.02725485
-0.063655272 -0.044200979 -0.027084932
-0.059167109 -0.028516872 -0.038766455
-0.059082352 -0.044165436 -0.02715141
-0.058719624 -0.044236854 -0.027017819
-0.056488909 -0.044073034 -0.027324259
-0.054116361 -0.044145897 -0.027187968
-0.051062446 -0.032973714 -0.035058226
-0.00048204139 0.0027408253 -0.037527401
-0.050659396 -0.044064954 -0.027339378
-0.049244136 -0.044061542 -0.027345758
-0.045546602 -0.044118941 -0.027238384
-0.043422036 -0.044043817 -0.027378907
-0.055439074 0.010985615 -0.050745901
-0.020372052 -0.032538127 -0.03739354
0.054951414 0.042233534 -0.030111689
-0.03365913 -0.044158764 -0.027163893
0.0051401164 -0.043822434 -0.027793022
-0.031575236 -0.044004008 -0.027453372
-0.029701024 -0.044197842 -0.027090797
-0.028064596 -0.044030987 -0.027402915
-0.025828503 -0.044163592 -0.02715487
-0.019617934 -0.044163555 -0.027154936
-0.018040406 -0.044022147 -0.027419448
-0.017785797 -0.04410696 -0.027260803
-0.01533803 -0.044188779 -0.027107753
0.0043080039 -0.01351035 -0.049979731
-0.013746893 -0.044230781 -0.027029188
-0.012152826 -0.044194639 -0.027096795
-0.011386843 -0.044132225 -0.02721354
-0.0096441004 -0.044071492 -0.027327146
-0.013220424 -0.018425524 -0.044102732
-0.0070857666 -0.044150896 -0.02717861
-0.0060474835 -0.044156533 -0.027168078
-0.0055805519 -0.044102468 -0.027269205
-0.030646142 -0.027918888 -0.038819354
-0.016874362 -0.044006582 -0.027448565
-0.00047467835 -0.044012256 -0.027437951
0.046151094 -0.032542676 -0.040238768
0.00094686635 -0.026492439 -0.037129276
0.0099907387 -0.044215158 -0.027058415
0.010295978 -0.044089347 -0.027293738
0.012951732 -0.044127293 -0.027222764
0.014482111 -0.044078395 -0.027314231
0.018358726 -0.044219896 -0.027049541
0.019231847 -0.044093221 -0.02728649
0.023717342 -0.044080906 -0.027309544
0.025266808 -0.044061001 -0.027346771
0.027347194 -0.044180579 -0.027123094
0.028566059 -0.044161763 -0.027158285
0.031630047 -0.044061936 -0.027345017
0.033956669 -0.044231866 -0.027027156
0.03596735 -0.044198386 -0.027089784
0.04009188 -0.044219211 -0.027050823
0.062892117 -0.014603496 -0.049648002
0.044110853 -0.044019111 -0.027425129
-0.023527076 0.0055375528 -0.051454209
0.053195022 -0.044084627 -0.027302574
0.056257807 -0.044226296 -0.027037576
0.05855776 -0.044086862 -0.027298395
0.059629634 -0.044053927 -0.027360007
0.062586173 -0.044153631 -0.027173508
0.063311949 -0.04413233 -0.027213339
0.06463097 -0.044109818 -0.027255457
0.065470256 -0.044056296 -0.027355565
0.066981129 -0.044035252 -0.027394935
0.067833155 -0.044212848 -0.027062727
0.068517156 -0.044180866 -0.027122553
0.069521457 -0.044087134 -0.027297884
-0.028535314 -0.036824163 -0.033764396
-0.06666626 -0.043786742 -0.027859788
-0.065804973 -0.043751642 -0.02792545
-0.063618295 -0.043961104 -0.027533635
0.026136875 0.04136464 -0.031170595
-0.061927401 -0.043813083 -0.027810518
-0.060439028 -0.043900277 -0.027647417
-0.059505843 -0.043777127 -0.027877774
-0.057772599 -0.04389016 -0.027666343
-0.056510266 -0.043849371 -0.027742652
0.018664243 -0.029454391 -0.042772882
-0.0015676022 -0.025490366 -0.045053422
0.019310568 0.023907587 -0.045449577
-0.047181528 -0.04379198 -0.027850004
-0.035684355 -0.030607384 -0.03557837
0.013835732 -0.035315715 -0.031074166
-0.041593075 -0.043779172 -0.027873946
-0.040988401 -0.043892279 -0.027662382
-0.024241118 0.042882413 -0.029320907
-0.037671339 -0.043725401 -0.027974535
-0.036632389 -0.043807883 -0.027820254
-0.035377756 -0.043923702 -0.0276036
0.010819046 -0.039450251 -0.03299858
-0.068250485 -0.019574439 -0.048140425
-0.02973664 -0.043901648 -0.027644854
-0.028791275 -0.043998327 -0.02746401
-0.026695114 -0.043919992 -0.02761054
-0.025416119 -0.043901879 -0.027644414
-0.024114424 -0.04391871 -0.027612934
-0.023992918 -0.043725193 -0.027974926
-0.020469228 -0.043862578 -0.027717935
0.0075259544 -0.01793923 -0.045958593
-0.014249336 -0.043865658 -0.027712174
-0.046731271 0.01585098 -0.049269654
9.5970929e-05 0.014163353 -0.049781568
-0.011256034 -0.043988477 -0.027482426
-0.0094840787 -0.043917064 -0.027616017
0.031524472 0.0100586 -0.051009499
-0.0063423673 -0.043886263 -0.027673626
-0.0057068816 -0.043817863 -0.027801577
-0.003369689 -0.043867297 -0.0277091
-0.0029670913 -0.043719366 -0.027985826
-0.0013760468 -0.043741263 -0.027944865
-0.00051185861 -0.043848403 -0.027744446
-0.0086840056 -0.035046093 -0.036171243
0.0047604572 -0.043861587 -0.027719792
0.005431206 -0.043769874 -0.027891349
0.0079770107 -0.043784145 -0.027864654
-0.0099847373 -0.0066088615 -0.034741256
0.023515917 -0.041890524 -0.030366708
0.011909343 -0.043835349 -0.027768867
0.013377434 -0.043841049 -0.027758203
0.015948284 -0.043954935 -0.02754518
0.02032524 -0.043823499 -0.027791036
0.021292908 -0.043856479 -0.027729344
0.023535732 -0.043923579 -0.027603833
0.024336113 -0.04381796 -0.0278014
0.024486184 -0.0097126439 -0.051043529
0.07 -0.020613896 -0.042609323
0.032165192 -0.043936264 -0.027580101
0.034804821 -0.043931581 -0.027588861
0.036510497 -0.043830961 -0.027777085
0.038295768 -0.043846235 -0.02774851
0.039801601 -0.043847732 -0.027745711
0.040724065 -0.043820366 -0.027796891
0.041899465 -0.043943964 -0.027565695
-0.058716569 -0.012725795 -0.050217818
0.043592125 -0.043891899 -0.027663102
0.047695912 -0.043923013 -0.027604897
0.048326522 -0.043844387 -0.02775196
0.049336221 -0.04392413 -0.027602796
0.050914828 -0.043754909 -0.027919341
0.05482617 -0.043822333 -0.027793214
-0.038477361 -0.038170584 -0.03506314
0.059651021 -0.043804027 -0.02782746
0.060938761 -0.043827273 -0.027783975
0.063675463 -0.043915246 -0.02761942
0.066358559 -0.043799009 -0.027836844
0.025200188 -0.025211763 -0.039473206
0.030203279 -0.035599157 -0.035966493
0.069721654 -0.021168616 -0.031119499
-0.070000008 -0.042187057 -0.027504813
0.07 -0.042431526 -0.027576905
-0.050809816 -0.017543316 -0.039403629
0.07 -0.041263241 -0.027033675
-0.07 -0.04059729 -0.027763844
0.07 -0.040551011 -0.027343191
0.043749467 0.025801348 -0.044887178
0.03274117 0.0016089266 -0.051841393
0.020432143 0.0037614889 -0.051629193
0.07 -0.038414933 -0.027543722
0.069999993 -0.037036709 -0.027042827
-0.069999993 -0.036446683 -0.027389422
0.07 -0.036478337 -0.027103949
0.054504778 -0.014583503 -0.047055125
0.07 -0.035554383 -0.02778817
-0.029145878 -0.010675969 -0.030317739
0.07 -0.034289204 -0.027372593
-0.040340085 -0.032815903 -0.031189859
0.069999993 -0.033679292 -0.027673751
-0.07 -0.032125186 -0.027247261
0.070000008 -0.031357031 -0.02746026
-0.07 -0.030120546 -0.027178528
0.07 -0.030200098 -0.027967257
-0.069999993 -0.029456111 -0.027417913
0.07 -0.029581865 -0.027350133
-0.07 -0.028901555 -0.027445994
0.023333333 -0.01792356 -0.030652
0.017553777 -0.0061649955 -0.051392488
0.038515527 -0.010815322 -0.033884142
-0.070000008 -0.026119309 -0.02755443
0.039552245 -0.011986136 -0.030803381
-0.07 -0.02516222 -0.027915061
-0.050495729 -0.0044952845 -0.037693467
0.07 -0.024521852 -0.027252123
0.070000008 -0.02493633 -0.027306374
-0.07 -0.023588378 -0.027701585
-0.07 -0.022553466 -0.027619312
0.07 -0.022224382 -0.027651256
0.070000008 -0.022569628 -0.027657289
-0.07 -0.021322832 -0.027634509
-0.07 -0.02003473 -0.027277935
-0.02959555 -0.013788966 -0.034009069
0.07 -0.019728541 -0.027708314
0.070000008 -0.019925389 -0.027121602
-0.070000008 -0.018353306 -0.027642738
0.07 -0.018445004 -0.027858291
-0.07 -0.017927352 -0.027536822
-0.07 -0.016405681 -0.02762061
0.045612659 -0.012652917 -0.035816103
-0.07 -0.015251858 -0.027338818
0.060667668 0.0028595771 -0.037641715
0.07 -0.014152936 -0.027181949
-0.069999993 -0.013637896 -0.027351625
0.07 -0.013976865 -0.027088875
-0.069999993 -0.012854644 -0.027579555
0.07 0.021250211 -0.044718254
-0.07 -0.01142567 -0.027536655
-0.07 -0.01022731 -0.027760953
0.069999993 -0.01022559 -0.027101293
-0.07 -0.0095156524 -0.027229663
0.07 -0.0092876107 -0.027711432
0.070000008 -0.0098952632 -0.027012488
-0.0032109134 0.01493149 -0.031167334
0.038638666 -0.010035266 -0.033006325
-0.07 -0.0077033509 -0.027357915
-0.07 -0.0067430818 -0.027506515
0.07 -0.0068819337 -0.027083898
-0.067867942 -0.0045891586 -0.03369857
-0.07 -0.0044444483 -0.027786873
0.07 -0.0045620129 -0.027035054
-0.069999993 -0.0031852694 -0.027863253
-0.07 -0.0026519839 -0.027700901
0.07 -0.0027887672 -0.027216084
-0.062528774 -0.0085305702 -0.051159803
-0.07 0.0002002893 -0.027539402
0.07 0.00099237077 -0.027537856
0.07 0.0014760941 -0.027229775
-0.070000008 0.002499532 -0.027642787
0.07 0.0022247732 -0.027260518
-0.069999993 0.0045359945 -0.027603252
0.07 0.0041542575 -0.027387787
-0.07 0.0066990219 -0.027692448
0.046261124 -0.0039528762 -0.029783003
0.07 0.007028712 -0.027100313
0.070000008 0.0074572042 -0.027780063
-0.07 0.0082115978 -0.027444039
0.070000008 0.0086318254 -0.027526308
-0.070000008 0.0098530827 -0.027291503
0.034460049 -0.0041615637 -0.038063504
-0.07 0.010140968 -0.027664851
0.07 0.01028751 -0.027629696
-0.07 0.011836205 -0.027563773
0.07 0.011699731 -0.027788425
0.07 0.012164582 -0.027106121
-0.070000008 0.013929876 -0.027534705
0.070000008 0.013089704 -0.027798787
-0.07 0.014689134 -0.027333356
-0.070000008 0.015581638 -0.027527854
-0.07 0.016628642 -0.027155254
0.07 0.016922273 -0.027519576
0.032947563 0.018013302 -0.04861404
-0.070000008 0.01853773 -0.027583353
0.07 0.018971354 -0.027129851
-0.07 0.019394536 -0.027532328
0.07 0.019362792 -0.0273025
-0.069999993 0.020515904 -0.027955217
0.070000008 0.020687746 -0.027521215
-0.07 0.021463204 -0.027001422
0.05188632 0.016048828 -0.035263442
-0.067746267 0.026984036 -0.03419286
0.069999993 0.022533722 -0.027737029
-0.070000008 0.023300109 -0.027130507
0.070000008 0.021244606 -0.031418741
-0.07 0.024702609 -0.027787304
0.07 0.024723265 -0.02703575
-0.070000008 0.025465589 -0.027553534
0.07 0.025142364 -0.027981989
-0.07 0.025929142 -0.03204136
0.07 0.026029516 -0.027602701
-0.07 0.027834892 -0.027661279
0.07 0.01454098 -0.028112154
-0.049447812 0.017636083 -0.032929949
0.07 0.029523358 -0.027477033
-0.07 0.030171679 -0.027063534
-0.035501726 0.030803718 -0.032871008
0.07 0.031984113 -0.02722732
0.070000008 0.031442355 -0.027620582
-0.07 0.032353636 -0.027347585
-0.07 0.033533543 -0.027039912
0.07 0.033689484 -0.027552359
-0.050529804 0.027251285 -0.035410218
0.069999993 0.034297511 -0.027099796
0.07 0.035247114 -0.027491521
-0.069999993 0.036918264 -0.027071599
-0.052715924 0.0065865419 -0.051351022
-0.07 0.037265051 -0.027531417
0.07 0.037747752 -0.027877511
-0.048247181 0.017653314 -0.039672151
0.057897341 0.02220726 -0.035436802
-0.07 0.039124161 -0.027654007
0.069999993 0.039700903 -0.027154922
-0.070000008 0.040661491 -0.027727716
0.07 0.040059879 -0.027577821
-0.055599645 0.040307015 -0.029928878
0.069999993 0.041501679 -0.027311333
-0.070000008 0.042520374 -0.027792646
-0.069663107 0.043488733 -0.027612168
-0.067969069 0.043808226 -0.027819607
-0.066163078 0.043894436 -0.027658349
-0.041687727 -0.032494884 -0.04027798
-0.063547954 0.043973152 -0.027511086
-0.062630825 0.043901287 -0.027645523
0.070000008 -0.00047706102 -0.029443353
-0.060587548 0.043997195 -0.027466124
-0.059600033 0.043839931 -0.027760295
-0.05882623 0.043861091 -0.027720712
-0.057080194 0.043860398 -0.027722014
0.028642103 0.042186767 -0.030168682
-0.055559829 0.043991458 -0.027476855
-0.054644227 0.043778319 -0.02787555
-0.053266197 0.043878928 -0.027687361
-0.051207691 0.043930218 -0.027591409
-0.050785072 0.043853454 -0.027735006
-0.04935319 0.043863937 -0.027715392
-0.048176922 0.04398153 -0.027495423
-0.034618463 0.019328199 -0.031576395
-0.057858631 0.017135825 -0.029186096
-0.044048674 0.043840494 -0.02775925
-0.04220121 0.043979116 -0.027499938
-0.041270159 0.043758616 -0.027912412
-0.039238639 0.043846153 -0.02774867
-0.036499575 0.0437616 -0.02790682
-0.034382507 0.043985251 -0.027488466
-0.033319805 0.04383187 -0.027775375
-0.032210186 0.04394092 -0.027571391
-0.028114937 0.043804992 -0.027825654
-0.027568907 0.04381403 -0.027808756
-0.024738558 0.043948855 -0.02755655
-0.023383306 0.043784335 -0.02786429
-0.0033893182 0.01685993 -0.030380895
-0.019644801 0.043835916 -0.027767804
-0.018237395 0.043804646 -0.027826309
-0.017852163 0.043911099 -0.027627183
-0.016421931 0.043979406 -0.0274994
-0.014999006 0.043987602 -0.027484067
-0.013539426 0.043763466 -0.02790333
-0.012511443 0.043817531 -0.027802207
-0.01182574 0.043880247 -0.027684886
-0.010085955 0.043928474 -0.027594673
-0.0096649099 0.043931194 -0.027589582
-0.0071160514 0.043855049 -0.027732024
-0.0062766485 0.043918759 -0.027612844
-0.0043670628 0.043888532 -0.027669393
-0.0036433116 0.043784428 -0.027864121
-0.034052487 0.029378951 -0.038535811
-0.001079347 0.043835253 -0.027769048
0.00031809509 0.04394234 -0.027568739
0.0015561841 0.043740615 -0.027946079
0.0024617705 0.043887705 -0.027670937
0.0032354128 0.043873381 -0.027697725
0.031044841 0.037069075 -0.03492273
0.0059301015 0.043911681 -0.027626086
0.0077461731 0.043849945 -0.027741566
0.0097894091 0.043715574 -0.027992919
0.010505615 0.04378039 -0.027871672
0.011880057 0.043945234 -0.027563322
0.01296909 0.043839976 -0.027760215
0.013493451 0.043932065 -0.027587956
0.015932208 0.043872669 -0.027699057
0.0019419193 -0.031370781 -0.041200377
0.018335273 0.043992728 -0.027474478
0.019077891 0.043741658 -0.027944136
0.021243833 -0.0021692677 -0.051786155
0.024156904 0.043980796 -0.027496804
0.025244394 0.043906797 -0.02763522
0.018403394 0.028003965 -0.034398451
0.027898764 0.043800022 -0.027834948
0.028553303 0.043789417 -0.027854789
0.029154491 0.043780491 -0.027871484
-0.014489776 0.024860907 -0.045389928
0.031560227 0.043867655 -0.027708441
0.03242442 0.043877628 -0.027689785
0.034575649 0.04382297 -0.027792025
0.03556852 0.043824356 -0.027789433
0.039289758 0.043791138 -0.027851565
0.041996263 0.043851361 -0.027738918
0.042597126 0.043953545 -0.02754778
0.046236653 0.04377643 -0.027879082
0.048770443 0.043765463 -0.027899593
0.050739031 0.043865006 -0.02771339
0.053438339 0.043762237 -0.02790563
0.054252278 0.043762859 -0.027904466
0.055362344 0.043859974 -0.027722806
-0.020754948 0.035867047 -0.034829956
-0.061860777 0.003069744 -0.051697385
0.060010549 0.043945696 -0.02756246
0.024931401 0.015644908 -0.029044069
0.062667899 0.04373543 -0.027955778
0.063981153 0.043758385 -0.027912837
0.064707115 0.04377567 -0.027880501
0.066858962 0.043940801 -0.027571615
0.07 0.043805443 -0.027476281
-0.069161698 0.044107534 -0.02725973
-0.068308942 0.04408177 -0.027307924
-0.065541007 0.044208527 -0.027070813
0.0013880152 0.0030126646 -0.031309016
-0.020805147 0.019742165 -0.037871603
-0.057316788 0.044118311 -0.027239565
-0.053267203 0.044028997 -0.027406642
0.06494841 -0.041604631 -0.030878119
-0.050712273 0.044009387 -0.027443314
-0.049511001 0.044218451 -0.027052244
0.035011172 0.0040744105 -0.043017283
-0.046677805 0.044215932 -0.027056959
-0.043298453 0.044006094 -0.027449477
-0.018596247 0.030749222 -0.037949484
-0.039273188 0.04415467 -0.027171558
0.066291876 -0.00042609163 -0.051957995
-0.030979617 0.044221506 -0.027046535
-0.02963973 0.044015951 -0.027431041
-0.025849409 0.04408744 -0.027297322
-0.024437096 0.044183366 -0.027117878
-0.02188227 0.044225026 -0.027039949
-0.020846369 0.044106718 -0.027261253
-0.019660953 0.044140559 -0.027197951
-0.017929511 0.044244006 -0.027004447
-0.016813621 0.044200465 -0.027085885
-0.015576405 0.044186298 -0.027112398
-0.014118625 0.044109255 -0.027256507
-0.013235008 0.044109423 -0.027256191
-0.011207595 0.044166565 -0.027149305
-0.0096280323 0.044148285 -0.027183499
-0.045181625 0.034496158 -0.03863582
-0.0077135097 0.044083782 -0.027304161
-0.0068367124 0.044066831 -0.02733586
-0.0021954142 0.04423365 -0.027023822
-0.067746267 0.026984036 -0.03419286
0.0004857406 0.044203818 -0.027079623
0.0018301792 0.044155378 -0.02717023
0.0025280733 0.044149332 -0.027181538
0.063641652 -0.041171852 -0.031405546
0.0057769604 0.044180542 -0.027123161
0.0064222664 0.044231128 -0.027028535
0.0093516819 0.04409511 -0.027282968
0.012639201 0.044024136 -0.027415728
0.013725468 0.04408313 -0.027305376
0.01505458 0.04421106 -0.027066076
0.017328197 0.044117473 -0.027241133
0.019125942 0.044108026 -0.027258808
0.03841006 0.024787564 -0.039278872
0.021929286 0.044143155 -0.027193096
0.022349248 0.044197902 -0.027090684
0.026771052 0.037597716 -0.032811031
0.0070498376 0.0035286359 -0.031724364
0.029570349 0.044204205 -0.027078893
0.031819738 0.044210739 -0.02706668
0.034183063 0.044028357 -0.027407832
0.036533613 0.044121727 -0.027233172
0.037631944 0.044093415 -0.027286135
0.042520985 0.044155113 -0.027170723
0.043612171 0.044192091 -0.027101565
0.044058442 0.044195466 -0.027095243
0.046744227 0.044178136 -0.027127657
0.047154497 0.044059634 -0.027349327
0.048159715 0.044049375 -0.027368521
0.049102217 0.044027817 -0.027408848
0.050561827 0.044049442 -0.027368397
