# .PCD v0.7 - Point Cloud Data file format
VERSION 0.7
FIELDS x y z
SIZE 4 4 4
TYPE F F F
COUNT 1 1 1
WIDTH 1337
HEIGHT 1
VIEWPOINT 0 0 0 1 0 0 0
POINTS 1337
DATA ascii
-0.0057263998 0.0085231233 -0.049627978
0.056000005 0.053666711 -0.017224208
-0.027753189 0.030492444 -0.038033377
0.043197453 -0.055 -0.042007379
-0.05361091 0.055 -0.017875964
-0.016553484 0.034360018 -0.024987191
-0.050599709 0.055 -0.017195191
-0.045640983 0.055 -0.040211573
-0.039225027 0.0092360377 -0.040629908
-0.0201174 0.033 -0.02629194
-0.056000002 -0.023733869 -0.022875855
0.044921976 -0.043645881 -0.043678444
-0.042134635 0.055 -0.017229266
-0.041629966 0.055 -0.017630752
-0.039632097 0.055 -0.017956311
-0.038483828 0.055 -0.01744622
0.056000002 0.043410178 -0.060295157
-0.049584139 0.00038889796 -0.0428854
-0.035192139 0.055 -0.017999029
-0.034753256 0.055 -0.01730302
-0.033388354 0.055 -0.017824056
-0.032039762 0.055 -0.017070506
-0.031474363 0.055 -0.017410051
-0.0057263998 0.0085231233 -0.049627978
0.013774764 0.0049254484 -0.029258091
-0.027312146 0.055 -0.017287914
-0.025930174 0.055 -0.017828772
-0.022579025 0.05130741 -0.028483365
-0.021437727 0.055 -0.017824585
-0.020266086 0.055 -0.01711273
-0.019125678 0.055 -0.017220765
-0.018051943 0.055 -0.017281853
-0.036593333 0.054786794 -0.027985234
-0.016633369 0.055 -0.017316043
-0.015357574 0.055 -0.017346416
-0.013720581 0.055 -0.017587014
0.021594444 -0.055 -0.026724219
-0.011898644 0.055 -0.017566111
-0.056000002 0.025847929 -0.057522252
-0.0094891712 0.055 -0.017230157
-0.0084461942 0.055 -0.017777763
-0.0079153413 0.055 -0.017297558
-0.03119508 0.054847125 -0.034003079
0.0091937939 0.055 -0.024530618
0.020529196 0.015576002 -0.039106496
-0.0034166947 0.055 -0.017081406
-0.002658274 0.055 -0.017257608
-0.00098762661 0.055 -0.017566327
-0.00097522605 0.035700586 -0.040717155
0.0011970904 0.055 -0.017103646
-0.01168034 0.02656546 -0.024842013
0.0043515582 0.055 -0.017196598
0.005203587 0.055 -0.017598981
-0.01407289 0.022492841 -0.025844172
0.030625336 0.041611977 -0.026197407
-0.023774263 0.0419835 -0.039774336
0.010720447 0.055 -0.017944822
-0.010295451 0.038857207 -0.031864308
0.03650986 0.0064129154 -0.064000003
0.01735446 0.055 -0.017471738
0.052530147 -0.042588115 -0.064000003
0.019706812 0.055 -0.017293723
0.021059576 0.055 -0.017445616
0.022384495 0.055 -0.017459881
0.011787209 0 -0.039964054
0.027574066 0.055 -0.017521687
0.02854402 0.055 -0.017852955
0.029430289 0.055 -0.017947769
0.031174427 0.055 -0.017469753
0.029235272 0.022430003 -0.03304527
0.032659478 0.042871952 -0.029085912
0.03475694 0.055 -0.017302752
0.020338144 -0.055 -0.040964112
0.036945798 0.055 -0.01712391
0.046825148 0.055 -0.050460353
0.038300697 0.055 -0.017672494
0.040438868 0.055 -0.017178893
0.047367614 0.031793743 -0.031494148
0.044366375 0.055 -0.017790347
0.0022005774 0.022041656 -0.040641822
0.048456013 0.055 -0.01791835
0.050181646 0.055 -0.017059229
-0.0086197611 -0.0034959912 -0.063999996
-0.056000002 -0.028970264 -0.056310847
0.053347189 0.055 -0.017037468
0.054198865 0.055 -0.017416628
0.0554264 0.054842845 -0.01734155
0.056000002 0.054396622 -0.017900163
0.028815366 0.055000003 -0.017195662
-0.055349194 -0.055 -0.016738197
-0.053816289 -0.055 -0.016740227
0.029059649 -0.027395865 -0.050165754
-0.0068151094 -0.055 -0.028553743
-0.05083888 -0.055 -0.016521027
-0.049302347 -0.055 -0.016728787
-0.047143012 -0.055 -0.016133022
-0.046414055 -0.055 -0.016835593
-0.044939518 -0.055 -0.016631328
-0.040847875 -0.055 -0.016713914
-0.03979443 -0.055 -0.016646527
-0.037504248 -0.055 -0.016522855
-0.035439868 -0.055 -0.016847178
-0.034352012 -0.055 -0.016896743
-0.032413036 -0.055 -0.016346756
-0.03137733 -0.055 -0.01639748
-0.029940158 -0.047016539 -0.02351434
-0.013721572 -0.043105535 -0.032528289
-0.025036603 -0.055 -0.016611503
-0.040209003 -0.0095933545 -0.029351285
-0.02352462 -0.055 -0.016052231
-0.0024468787 0 -0.019895561
-0.021633875 -0.055 -0.016547266
-0.029129835 -0.010675408 -0.04009049
-0.0064481585 -0.014051806 -0.045253739
-0.018507812 -0.055 -0.016813688
-0.017109452 -0.055 -0.016040647
-0.016815839 -0.055 -0.016174741
-0.01596895 -0.055 -0.016322916
-0.014763265 -0.055 -0.016033068
-0.01388664 -0.055 -0.016813112
0.01682237 -0.055 -0.060845897
-0.010347813 -0.055 -0.01658137
-0.0095311999 -0.055 -0.016604781
-0.0087057929 -0.055 -0.016150765
0.0034423079 -0.028957885 -0.025439132
0.015459086 -0.038708851 -0.031807505
-0.0034100469 -0.055 -0.016917376
-0.0017139595 -0.055 -0.016245386
0.016487872 -0.03437259 -0.028740302
0.0013925744 -0.055 -0.016458672
-0.026891587 -0.027207389 -0.026442062
0.0037387051 -0.055000003 -0.016169168
0.0044420222 0.055 -0.040615693
0.005197213 -0.055 -0.016537469
0.0060500456 -0.055 -0.016861802
0.0086278012 -0.055 -0.016551137
0.0093234265 -0.055 -0.016775878
0.032923162 -0.054850016 -0.039934009
0.03263602 -0.013985503 -0.040318768
0.01224206 -0.055 -0.016433522
0.013233058 -0.055 -0.016635062
0.01644918 -0.055 -0.016587893
0.02102606 -0.041452117 -0.028330503
0.01912633 -0.055 -0.016088927
0.021839241 -0.055 -0.016220214
0.022838559 -0.055 -0.016149826
0.023417071 -0.055 -0.016499652
0.024372743 -0.055 -0.016591491
0.025595753 -0.055 -0.01650122
0.026140079 -0.055 -0.016754905
0.009290142 0.037216909 -0.064000003
0.028671144 -0.055 -0.016670099
0.029404476 -0.055 -0.016646326
-0.029650997 0.011291705 -0.064000003
0.032389384 -0.055 -0.016050294
0.0050099725 0 -0.01921251
-0.029549506 0.055 -0.032317672
0.040403433 0.046489932 -0.064000003
0.020608351 0.019772213 -0.064000003
0.039504629 -0.055 -0.016622175
0.032015607 -0.051237218 -0.032580443
0.041316941 -0.055 -0.016324421
0.04218635 -0.055 -0.016709184
0.04383257 -0.055 -0.016518667
0.044219613 -0.055 -0.016475897
0.046701238 -0.055 -0.016605079
0.047355182 -0.055 -0.016317803
0.051095825 -0.055 -0.016434714
0.052501246 -0.055 -0.016293939
0.054622002 -0.042766601 -0.023208555
0.054402698 -0.055 -0.016292214
0.056000002 -0.054608621 -0.016903799
-0.056000002 -0.052621342 -0.016348429
0.056000002 -0.052675657 -0.016541606
-0.056000002 -0.050088782 -0.016362708
0 -0.007409133 -0.020714954
-0.017758353 0.0026855767 -0.035915993
0.056000002 -0.026494805 -0.058407966
0.056000002 -0.026536953 -0.018245289
-0.048444379 0.027160756 -0.064000003
-0.020200144 -0.037580714 -0.032353252
0.056000002 -0.046683457 -0.01660545
-0.028047455 -0.013287069 -0.064000003
0.056000002 -0.045488145 -0.016823284
-0.056000002 -0.044506304 -0.016561339
-0.056000002 -0.044418477 -0.059466373
0 -0.04393176 -0.019206418
-0.027287111 -0.046540678 -0.024414986
0.056000002 -0.042214215 -0.016849773
-0.056000002 -0.041239463 -0.016183142
0.056000002 -0.041678447 -0.016268095
0.056000002 0.052592278 -0.0194593
-0.038039114 -0.016401779 -0.03223576
0.010478379 0.051203717 -0.03778024
-0.056000002 -0.038973875 -0.016409164
0.043937441 -0.019151911 -0.032171641
-0.056000002 -0.037320063 -0.016725402
0.056000002 -0.03729903 -0.016353339
-0.056000002 -0.036379147 -0.016799744
0.056000002 -0.036518209 -0.016689975
-0.056000002 -0.035633102 -0.016324595
0.056000005 -0.035796814 -0.016929289
-0.056000002 -0.034679703 -0.016179465
0.056000002 -0.034297079 -0.016660813
-0.056000002 -0.033831358 -0.01630359
0.053425647 -0.01883116 -0.032570444
-0.018666668 -0.0043786876 -0.027525641
0.0043448973 0 -0.048234828
-0.055999998 -0.031031922 -0.016741775
0.056000002 -0.031789131 -0.016880963
0.056000002 -0.030664839 -0.016548662
-0.023497989 0.055 -0.059964743
0.056000002 -0.02930359 -0.016627032
0.056000002 -0.027634613 -0.016581681
-0.056000002 -0.026587307 -0.016622586
0.028000001 -0.028246021 -0.025266483
0.056000002 -0.0242033 -0.016273171
-0.0067515085 0.0092461109 -0.035402365
0.056000002 -0.021343796 -0.016739752
-0.0058963485 0.055 -0.019327981
-0.056000002 -0.019457126 -0.016290108
0.056000002 -0.019058539 -0.016839605
-0.056000002 -0.018888529 -0.016270954
-0.056000002 -0.017817087 -0.016685976
0.056000002 -0.017750913 -0.016666532
-0.022307197 0.011603863 -0.040223069
0.056000002 -0.016123088 -0.016641578
-0.056000002 -0.015040604 -0.016269084
-0.056000002 -0.014869958 -0.016836358
0.040615872 -0.0066838874 -0.024469828
0.056000002 -0.013359055 -0.016928948
-0.056000002 -0.012631519 -0.016086614
0.056000002 -0.012856394 -0.016697466
-0.056000002 -0.011384835 -0.016218569
0.056000002 -0.011113554 -0.016873725
-0.056000002 -0.010791384 -0.016253533
-0.056000002 -0.0066371327 -0.016167346
-0.0044779694 -0.0056990925 -0.054508373
0.032708008 -0.0053333202 -0.064000003
-0.056000002 -0.0046755485 -0.016833426
0.056000002 -0.0040233359 -0.016900785
0.056000002 -0.0036463067 -0.016220734
-0.056000002 -0.002354905 -0.01639921
0.056000002 -0.0020890087 -0.016944416
-0.056000005 -0.0017918044 -0.016302679
-0.056000002 -0.00010056794 -0.016674906
0.056000002 -0.00055393018 -0.016578974
-0.056000002 0.0080980696 -0.037695177
0.056000002 7.7024102e-05 -0.016920034
-0.056000002 0.0015878407 -0.016460994
-0.056000002 0.0028660093 -0.016185068
-0.054678112 0.013050577 -0.06400001
-0.056000005 0.0044470862 -0.016563758
0.056000002 0.0048213378 -0.01640204
-0.056000002 0.005780946 -0.016408687
-0.048512414 0.035080142 -0.064000003
-0.020162983 0.0022969702 -0.032358848
0 -0.020583237 -0.023301341
0.056000002 0.0080714449 -0.016376203
0.056000002 0.0098293945 -0.016164206
0.056000002 -0.011425774 -0.054394249
-0.056000002 0.011345575 -0.016594956
-0.056000002 0.012780664 -0.016399957
0.056000002 0.012706321 -0.016363146
-0.056000002 0.013523687 -0.016133463
0.056000002 0.013047077 -0.016740419
-0.056000002 0.014569196 -0.016138459
0.056000002 0.014138164 -0.016503269
-0.056000002 0.015462343 -0.016015505
-0.056000002 0.016762596 -0.016388275
-0.036703732 -0.055 -0.032472916
-0.056000002 0.018158827 -0.016338386
0.056000002 0.018796669 -0.016413756
-0.056000002 0.019713771 -0.016998515
0.056000002 0.019766966 -0.01647329
-0.029398572 0.0016789655 -0.024114229
0.0006984733 0.0037957923 -0.064000003
-0.034862533 0.032683253 -0.022872731
0.056000002 0.021282043 -0.016777206
-0.056000002 0.023013448 -0.016931633
0.056000002 0.023174057 -0.016108137
-0.056000002 0.024068728 -0.016789757
0.056000002 0.024049845 -0.016533205
-0.036018714 -0.04638207 -0.064000003
-0.056000002 0.026380146 -0.016012566
0.056000002 0.026730191 -0.016011612
0.0013536639 -0.04101783 -0.06400001
-0.056000002 0.028042646 -0.016446792
-0.056000002 0.029412873 -0.016630577
0.056000002 0.042092178 -0.023148615
0.028974678 0.027706113 -0.03220411
-0.056000002 0.033284359 -0.016856518
-0.056000002 0.034981117 -0.016441772
-0.040147342 0.02661255 -0.032479644
0.056000002 0.036799047 -0.01607196
-0.056000002 0.037784286 -0.016960092
-0.056000002 0.038399924 -0.016458467
0.056000002 0.038666636 -0.016289731
-0.036143765 -0.0079870038 -0.034089576
-0.056000005 0.040671401 -0.016321082
0.056000002 0.040038463 -0.016244465
-0.056000002 0.041442275 -0.016810853
0.056000005 0.041818164 -0.016361207
0.0016678348 0.031631928 -0.064000003
0.056000002 0.042369537 -0.016349413
-0.056000005 0.043133095 -0.016087091
0.053977638 0.030279284 -0.032254077
-0.0016766712 -0.0052481797 -0.034178872
0.056000002 0.045589589 -0.016809601
-0.056000002 0.046878941 -0.016038658
0.056000002 0.046592962 -0.016498262
-0.056000002 0.047399014 -0.016308634
0.056000002 0.0383562 -0.026681803
0.035003819 0.043853145 -0.051539943
0.056000002 0.048728593 -0.016571378
0.056000002 0.049874548 -0.016243227
-0.056000005 0.050855286 -0.016170351
-0.0052758195 0.052593414 -0.037244976
0.056000002 0.05030816 -0.016788162
-0.056000002 0.051867474 -0.016699996
0.056000005 0.051465608 -0.016626298
-0.056000002 0.052663211 -0.016530614
-0.056000002 0.053019185 -0.016896173
0.056000002 0.053122919 -0.01628943
-0.055600066 0.055 -0.016441341
-0.054374676 0.055 -0.016451348
-0.052267455 0.055 -0.01674578
-0.028122634 0.051916406 -0.028278992
-9.7372569e-05 0.034435105 -0.056297831
-0.049687691 0.055 -0.016824102
-0.048408434 0.055 -0.016407844
-0.013586419 0.038706593 -0.039936073
-0.046408691 0.055 -0.016235931
-0.043705121 0.055 -0.016382437
-0.04224579 0.055 -0.016984098
-0.041164838 0.055 -0.016804244
-0.03944622 0.055 -0.01693524
-0.037568703 0.055 -0.016290411
-0.036751427 0.055 -0.016077053
-0.034922332 0.055 -0.016260544
-0.0039501218 0.040085413 -0.029164162
0.012154259 0.04590261 -0.037707008
-0.0079981722 0.046918206 -0.016839664
-0.029787403 -0.010404231 -0.064000003
-0.027577573 0.055 -0.016826609
-0.026366927 0.055 -0.016924243
-0.025499798 0.055 -0.016133737
-0.032965451 0.033616789 -0.040136576
0.029403133 0.031871036 -0.024643421
-0.044912383 0.055 -0.051426314
-0.0026730723 0.048773341 -0.021093791
-0.01816773 0.055 -0.026165243
-0.017450912 0.055 -0.016248964
-0.047281142 -0.043319657 -0.064000003
-0.014992611 0.055 -0.016498916
-0.013316868 0.055 -0.016567629
-0.012579694 0.055 -0.016351238
-0.011426598 0.055 -0.016119245
-0.010324917 0.055 -0.016334783
-0.010734463 0.050592978 -0.025917817
-0.0098801814 0.020812219 -0.032350551
-0.021470517 0.050223798 -0.016365737
-0.0039941967 0.055 -0.016021021
-0.002249524 0.055 -0.016253922
-0.0012464784 0.055 -0.016908042
0.00057850964 0.055 -0.016083457
-0.033231549 0.0073639406 -0.04823833
0.0023538684 0.055 -0.016579702
-0.00097861746 0 -0.03492735
0.0055902936 0.055 -0.016619898
0.0064797769 0.055 -0.016733129
0.0070120301 0.055 -0.016163917
0.026230641 0.021020077 -0.063999996
0.01065034 0.055 -0.016221259
0.011812301 0.055 -0.016635779
0.012488879 0.055 -0.016812654
0.014253452 0.055 -0.016827378
0.0022994997 -0.026115671 -0.064000003
0.016362423 0.055 -0.016883042
0.017587222 0.055 -0.01637133
0.018458258 0.055 -0.016574955
0.020931371 0.055 -0.016741958
0.021304153 0.055 -0.016355325
0.022385724 0.055 -0.016659224
0.023986934 0.055 -0.016441561
0.024469741 0.055 -0.016364044
0.025305331 0.055 -0.016464597
0.026993984 0.055 -0.01684173
0.029419716 0.055 -0.016342629
0.030026833 0.054999992 -0.016582083
-0.012222081 0.017099496 -0.032516155
0.032531328 0.055 -0.016571525
0.034378141 0.055 -0.016808061
-0.038195033 -0.00763423 -0.064000003
0.04365921 0.037443139 -0.031624787
0.038275458 0.055 -0.016186282
0.039790124 0.055 -0.016882686
0.040897295 0.055 -0.016556298
0.043698289 0.055 -0.016716341
0.045030512 0.055 -0.016593318
0.021073464 0 -0.03691119
0.048921611 0.055 -0.016594367
0.052863654 0.00053848326 -0.021545921
0.050103474 0.055 -0.016287738
0.052414022 0.055 -0.016182289
0.053866945 0.055 -0.016911818
0.055509835 0.055 -0.016253222
0.023367083 0.05450052 -0.029896546
-0.04495196 0.055000003 -0.016464956
0.045292135 0.055000003 -0.016516525
-0.043763619 -0.024195306 -0.064000003
0.053501636 0.055000003 -0.016080244
-0.05564196 -0.054781228 -0.015329252
-0.054119788 -0.055 -0.015081007
-0.05366566 -0.055 -0.015510947
-0.050412528 -0.055 -0.015294793
0.042079516 0.0095711537 -0.064000003
-0.046076521 -0.055 -0.015503231
-0.044730928 -0.055 -0.015392329
-0.04341365 -0.055 -0.01528903
-0.041567646 -0.055 -0.015495917
-0.016205231 0.020277645 -0.032929152
-0.039475136 -0.055 -0.015663659
-0.038279235 -0.055 -0.015249721
-0.037605267 -0.055 -0.015427866
0.04944161 0.027053824 -0.064000003
-0.032326788 -0.055 -0.015690062
-0.031880766 -0.055 -0.015463765
-0.030636966 -0.055 -0.01510721
-0.00098636257 -0.046481542 -0.016951006
-0.02841071 -0.055 -0.01537
-0.0066197142 -0.046689808 -0.016246581
-0.026300505 -0.055 -0.015451564
-0.025469355 -0.055 -0.015650356
-0.02484785 -0.055 -0.015219714
-0.023310302 -0.055 -0.015355473
-0.022597566 -0.055 -0.015439827
-0.021660322 -0.055 -0.015316894
-0.033095155 -0.0080135781 -0.064000003
-0.016253689 -0.055 -0.015843555
-0.040472135 0.016636742 -0.064000003
-0.014575325 -0.055 -0.015502226
-0.013081292 -0.055 -0.015805377
-0.012622144 -0.055 -0.015000803
-0.011079477 -0.055000003 -0.015208742
-0.010281336 -0.055 -0.015477712
-0.0096269827 -0.055 -0.015439183
-0.0084248018 -0.055 -0.01587593
-0.027320895 -0.030776937 -0.032299258
0.02487188 -0.023759115 -0.01769923
0.0099510327 -0.030365178 -0.039709829
-0.0013585016 -0.055 -0.015650863
-0.00012204982 -0.055 -0.015138604
0.0024005752 -0.055000003 -0.015632719
0.0030202381 -0.055 -0.015068574
0.0044384543 -0.055 -0.015416978
0.0057125585 -0.055 -0.015289741
0.0066402713 -0.055 -0.015028015
-0.022295453 -0.029865429 -0.039958086
0.0089937523 -0.055 -0.015484987
0.0092102829 -0.055 -0.015714126
0.010248722 -0.055 -0.015339905
0.011422761 -0.055 -0.015610445
0.012745497 -0.055 -0.015128464
0.013367596 -0.055 -0.015425766
0.014762968 -0.055 -0.015317515
0.01361106 -0.054226555 -0.030319577
0.016790086 -0.055 -0.015112029
-0.015048539 0.041798566 -0.064000003
0.018921921 -0.055 -0.015296372
0.019414159 -0.055 -0.015567912
0.03520225 0.039955553 -0.064000003
0.021621682 -0.055 -0.015393699
0.014645289 -0.0060162302 -0.039850879
0.014802855 -0.018277083 -0.061867435
0.024467252 -0.055 -0.015503217
0.04067266 -0.017838296 -0.018402111
0.027780686 -0.055 -0.015082532
-0.001736667 0.0038014445 -0.064000003
0.030623466 -0.055 -0.015174456
0.03152632 -0.055 -0.015317416
0.032941431 -0.055 -0.015766382
0.034233794 -0.044459812 -0.025936536
0.037481569 -0.055 -0.015315148
0.028804963 -0.014577644 -0.039562568
0.039128855 -0.055 -0.015804673
0.042721607 -0.055 -0.015808739
0.043431371 -0.055 -0.015304596
0.044465672 -0.055 -0.015774947
0.045333914 -0.055 -0.015707156
0.0080703031 -0.029682357 -0.039951269
0.048817769 -0.055 -0.01564955
0.050414138 -0.055 -0.015452525
-0.0014498327 -0.044814378 -0.039712075
0.027281899 -0.055 -0.03131656
0.054287516 -0.055 -0.015768493
0.056000002 -0.054808088 -0.015659869
-0.056000005 -0.053771313 -0.015011864
-0.056000002 -0.053058691 -0.015426452
-0.0068906061 -0.045617387 -0.064000003
0.046035416 0.024502065 -0.035570554
0.056000005 0.001663082 -0.044227079
0.056000002 -0.049629766 -0.015656978
0.053319007 -0.00014546514 -0.039868861
-0.027221994 -0.042748533 -0.039526086
0.056000002 -0.038358375 -0.061557651
-0.056000002 -0.046131954 -0.015672436
0.056000002 -0.046455227 -0.015784118
-0.056000002 -0.045052797 -0.015842838
0.038531952 -0.02184437 -0.039697353
-0.056000005 -0.04310108 -0.01529813
-0.056000002 -0.043765616 -0.015434327
0.056000002 -0.043894354 -0.015312087
-0.056000005 -0.042537075 -0.015436158
0.056000002 -0.042532515 -0.01549245
-0.056000002 -0.041241899 -0.015271854
0.056000002 -0.041386098 -0.015419411
-0.056000002 -0.040346846 -0.015777472
-0.003264653 -0.054743156 -0.063944921
0.056000002 -0.039555471 -0.015361493
-0.056000002 -0.038429253 -0.015594842
0.056000002 -0.038627163 -0.01530629
-0.0353067 0.0092295073 -0.036923319
-0.056000005 -0.034487929 -0.015505112
0.056000002 -0.034739889 -0.015510605
-0.056000002 -0.033470232 -0.015495099
-0.056000002 -0.032592364 -0.015360058
0.056000002 -0.031426333 -0.015222986
-0.056000002 -0.030381201 -0.015222833
0.056000002 -0.030855427 -0.01541581
-0.056000002 -0.029397715 -0.015793469
0.056000002 -0.029433757 -0.015075519
-0.025830381 -0.055 -0.060717177
0.056000002 -0.028268844 -0.015262205
0.056000002 -0.026796492 -0.015525028
-0.056000002 -0.025017262 -0.015290355
-0.056000002 -0.024613183 -0.01566832
0.044325233 -0.032660138 -0.019407479
-0.056000002 -0.023788616 -0.015786184
0.056000005 -0.023500612 -0.015498417
0.038611408 -0.038336076 -0.031486996
-0.056000002 -0.020291204 -0.015295976
-0.056000002 -0.019398909 -0.015093575
0.056000002 -0.019389339 -0.015522141
-0.056000002 -0.0182696 -0.015734248
-0.056000002 -0.017446775 -0.015574398
0.05202071 -0.022734514 -0.03171698
-0.056000002 -0.016585873 -0.015397271
0.056000005 -0.016718842 -0.015541337
-0.016561624 0.0072643869 -0.039709393
0.0057242643 0.019581188 -0.019578718
-0.056000002 -0.014558688 -0.015186742
0.056000005 -0.013628802 -0.015419265
-0.056000002 -0.012921003 -0.01564908
0.043052793 -0.026432261 -0.025640983
-0.056000002 -0.01107231 -0.015750602
0.056000002 -0.011012867 -0.015132867
-0.056000002 -0.010538074 -0.015585195
0.056000002 -0.010319337 -0.015694309
-0.0067937784 -0.023993134 -0.039600246
0.056000002 -0.0094663873 -0.015811957
-0.056000002 -0.0084005054 -0.015251111
0.056000002 -0.0083783502 -0.015396911
-0.056000002 -0.0070363935 -0.015789138
-0.0056179389 0.025564974 -0.064000003
0.056000002 -0.0071358662 -0.01546187
-0.056000002 -0.0068560895 -0.015192667
-0.0045222044 -0.055 -0.056339189
-0.0032689646 0.055 -0.051350523
0.0055933851 -0.0010456967 -0.042484723
-0.02862324 0.025245495 -0.016226701
0.056000005 -0.004416402 -0.015747305
-0.056000002 -0.0034864284 -0.015910348
0.056000002 -0.0039934777 -0.015739501
0.056000002 -0.0015423251 -0.015395619
-0.056000002 -0.00038405694 -0.015706271
-0.056000002 0.00059793703 -0.015880769
0.056000002 0.00049461052 -0.015396589
0.010059752 0.026981946 -0.042371161
-0.056000005 0.0024296872 -0.015385741
-0.056000002 0.0036100661 -0.015639041
0.056000005 0.0035177092 -0.015282588
-0.056000002 0.0046929745 -0.015523927
0.056000002 0.0045087766 -0.015284305
-0.056000005 0.0052156039 -0.015618123
0.056000002 0.0053700842 -0.0153841
-0.045247003 -0.042874828 -0.064000003
-0.056000002 0.0074924165 -0.01580935
-0.034463339 0.055 -0.057155695
-0.029528309 0.013278931 -0.031574883
-0.056000002 0.0091470946 -0.015783181
0.056000002 0.0098344982 -0.015121421
-0.056000002 0.010302016 -0.015583619
0.024538016 0.0086199865 -0.064000003
-0.056000002 0.011771261 -0.015539736
-0.056000002 0.012200409 -0.015269913
-0.056000002 0.013287262 -0.015565311
0.04433012 0.01022948 -0.039767504
0.0060024066 0.039277665 -0.047358967
-0.033419643 -0.0020439746 -0.041705936
0.024948914 -0.038467817 -0.064000003
0.056000002 0.016834542 -0.015841186
-0.056000002 0.017288525 -0.015451703
0.056000002 0.01758153 -0.015638553
-0.056000002 0.018155254 -0.015608463
-0.026439432 -0.017540807 -0.064000003
-0.056000005 0.020678127 -0.015649326
0.056000002 0.02054422 -0.0155378
0.056000002 0.021437801 -0.015526856
0.055680178 0.049633346 -0.064000003
0.033834502 0.013438828 -0.03998886
-0.031111112 0.024608597 -0.024875645
0.056000002 0.024260066 -0.015864335
0.041240588 0.0062532518 -0.064000003
-0.056000002 0.0264972 -0.01527922
0.028000001 0.016582735 -0.023856252
0.032548405 -0.038707547 -0.064000003
-0.056000002 0.028408857 -0.015001543
0.056000002 0.028608654 -0.015718382
-0.056000005 0.030293023 -0.015743395
-0.056000002 0.030976677 -0.015547002
-0.030550469 0.049413402 -0.061996464
0.056000005 0.031544536 -0.015771281
-0.056000002 0.032859325 -0.015345672
-0.056000002 0.033751514 -0.015128665
0.0012947279 -0.046079911 -0.064000003
0.056000002 0.034576841 -0.01586261
0.055999998 0.035414476 -0.015265521
0.056000002 0.035609376 -0.015409988
0.017953951 0.00788025 -0.063999996
0.046271197 0.021123085 -0.039410014
0.056000005 0.037597921 -0.015539601
-0.056000002 0.038514111 -0.01589423
0.056000002 0.03856428 -0.01546135
-0.056000002 0.040979452 -0.01587541
0.056000002 0.040563725 -0.01591295
-0.056000002 0.041676063 -0.015450967
-0.056000005 0.042648166 -0.015513947
-0.056000002 0.043651309 -0.015651427
-0.033540767 -0.00037777424 -0.064000003
-0.056000002 0.044840835 -0.01573319
0.056000002 0.04479102 -0.015407195
-0.056000002 0.045662258 -0.015215264
0.056000002 0.045679837 -0.015989037
-0.022434283 -0.054813854 -0.063790537
0.056000002 0.047975879 -0.015846215
-0.056000002 0.048419997 -0.015392333
0.026882788 0.02962872 -0.031866863
-0.056000002 0.049815264 -0.015263948
0.055999998 0.049374949 -0.015394412
0.056000002 0.049187519 -0.015065929
-0.040958408 0.0099342205 -0.035425358
0.055999998 0.050342154 -0.015470112
-0.056000002 0.051878795 -0.01545543
0.056000002 0.051791813 -0.015781414
-0.024604194 0.051471245 -0.031594977
0.056000002 0.052556351 -0.01511546
-0.056000002 0.007876223 -0.031706773
0.05537428 -0.026179925 -0.064000003
-0.018666668 0.041285709 -0.023005886
-0.054952867 0.055 -0.015214073
-0.05078616 0.055 -0.015637714
-0.048609704 0.055 -0.015985744
-0.018466607 0.031693257 -0.039546221
-0.046312638 0.055 -0.01547047
-0.045455597 0.055 -0.015670532
-0.043044508 0.055 -0.015375957
-0.036616527 0.039804298 -0.020151451
-0.046771437 0.00056209136 -0.064000003
0.013097843 -0.0036429006 -0.064000003
-0.039399929 0.055 -0.015854064
-0.0060773864 -0.022787888 -0.063306078
0.056000002 -0.013021871 -0.025359994
-0.024043296 0.041531958 -0.039601348
-0.034301702 0.055 -0.015424903
-0.033592291 0.055 -0.01534823
-0.028055241 -0.029487168 -0.033544704
-0.029163316 0.055 -0.015568786
-0.028553516 0.055 -0.015799182
-0.0066913962 0.030026989 -0.020871656
-0.017380824 0.0096557997 -0.030631544
-0.025651783 0.055 -0.015660103
0.0004712306 0 -0.02251718
-0.023844244 0.055 -0.015072439
-0.022507887 0.055 -0.015456038
-0.021667572 0.055 -0.015600237
-0.0068363026 0.0097047305 -0.027914932
-0.019264579 0.055 -0.015819872
-0.018156016 0.055 -0.015996056
-0.017098144 0.055 -0.015235471
-0.016606752 0.055 -0.015348236
-0.015113356 0.055 -0.015164143
-0.013220116 0.055 -0.015768634
-0.012606686 0.055 -0.015959483
-0.010414257 0.033 -0.022937814
-0.010734597 0.055 -0.015520301
-0.0083508994 0.055 -0.015958017
0.0066052545 0.037138522 -0.028855622
-0.0061930381 0.055 -0.015699659
-0.0054716356 0.055 -0.015881883
-0.00460447 0.055 -0.01558551
-0.032619402 0.055 -0.061531156
-0.0012889616 0.055 -0.015910633
-0.018495871 0.035768688 -0.039618529
0.0014857184 0.055 -0.015096628
0.017906938 0.022741254 -0.031874858
0.0037973654 0.055 -0.015417559
0.0043059029 0.055 -0.015470216
-0.052988473 0.0027550869 -0.064000003
0.0063485 0.055 -0.015597839
0.007618973 0.055 -0.015519699
-0.013262014 0.029048868 -0.02856268
0.022913028 0.046704132 -0.039889939
0.012576299 0.055 -0.015100436
0.014409039 0.055 -0.015481997
0.015557513 0.055 -0.015488748
-0.0081641041 -0.027197242 -0.064000003
-0.056000005 -0.023495764 -0.04737509
0.021731164 0.055 -0.015795518
0.022787306 0.055 -0.015433894
-0.056000002 -0.014558688 -0.015186742
-0.053448159 -0.032848381 -0.064000003
0.036440983 0.0046543628 -0.039963689
0.026186485 0.055 -0.015695835
-0.056000002 0.017381975 -0.050939627
0.028776275 0.055 -0.015566938
0.029251717 0.055 -0.015917845
0.056000002 -0.041435122 -0.04649559
0.033533998 0.055 -0.015517794
0.013054378 0 -0.032102622
0.025509765 0.030951262 -0.031459592
0.013381638 0.05155021 -0.022012545
0.03751158 0.055 -0.015715286
-0.013591738 0.055 -0.024431864
0.039876685 0.055 -0.015516123
0.040389575 0.055 -0.015210092
0.041373126 0.055 -0.015625522
0.010598611 0.044695988 -0.039505556
0.044808552 0.055 -0.015477311
0.045849293 0.055 -0.015356876
0.013608174 -0.055 -0.027018234
0.047395028 0.055 -0.015552521
0.049536861 0.055 -0.015516534
0.0501437 0.055 -0.015058083
0.051717892 0.055 -0.015500953
-0.054639854 0.042154238 -0.064000003
0.056000002 0.054377802 -0.015944749
0.031848036 0.055000003 -0.015965743
0.055999998 0.051886518 -0.061763123
-0.053788684 -0.043353759 -0.026660152
0.014516309 0.037267692 -0.064000003
-0.053130388 -0.055 -0.014520906
-0.050368764 -0.055 -0.014772169
-0.018254276 0.0071666967 -0.06400001
-0.047752269 -0.055 -0.01431944
-0.049438603 -0.0437904 -0.024652317
-0.045820661 -0.055 -0.014966885
-0.04258306 -0.055 -0.014670176
-0.04159499 -0.055 -0.014598289
-0.039037898 -0.055 -0.014373643
-0.0072639561 -0.020793457 -0.033307269
-0.037279762 -0.055 -0.014535217
-0.036213584 -0.055 -0.014639446
-0.03545225 -0.055 -0.014401979
-0.033442806 -0.055 -0.014270654
-0.031572532 -0.055 -0.014255967
-0.030881027 -0.055 -0.014428365
-0.029786918 -0.055 -0.014290431
-0.042295393 -0.055 -0.058233749
0.0056741964 -0.018708095 -0.032522265
-0.024706833 -0.055 -0.014720318
-0.022342816 -0.055 -0.014741778
-0.020791784 -0.055 -0.014998488
-0.017977789 -0.040567234 -0.027447356
-0.016720302 -0.055 -0.014437573
-0.015696682 -0.055 -0.014864022
-0.0064867861 0.0079008862 -0.035049923
7.0699803e-05 -0.055 -0.026233539
-0.010047598 -0.055 -0.014712753
-0.008237822 -0.055 -0.014865128
0.014507629 -0.023524366 -0.03936876
-0.056000002 0.0045935921 -0.031186074
-0.0053840275 -0.055 -0.014626645
0.0062834211 -0.027052771 -0.037836067
-0.0032858606 -0.055 -0.014570946
0.053501636 0.055000003 -0.016080244
-0.0017170478 -0.055 -0.014507687
-0.0002437178 -0.055 -0.014410393
0.031398967 0.050450101 -0.064000003
0.0015961938 -0.055 -0.014613977
0.0025002435 -0.055 -0.014346221
0.0036299592 -0.055 -0.014267328
0.0058776084 -0.055 -0.014380995
0.052523255 0.055 -0.062394924
0.0074167605 -0.055 -0.014273131
0.0098098554 -0.055 -0.014355203
0.021870526 0 -0.020515785
0.033229277 -0.017626822 -0.064000003
0.012537396 -0.055 -0.014819369
0.01373027 -0.055 -0.014217155
-0.024500456 0.0074802637 -0.064000003
0.016502835 -0.055 -0.014605492
0.018291753 -0.055 -0.014769331
0.019160405 -0.055 -0.014954774
-0.013903359 -2.5562942e-05 -0.064000003
0.023284223 -0.055 -0.014470692
0.025568726 -0.055 -0.0146168
0.013015976 -0.027499998 -0.015240437
0.027502719 -0.055 -0.014442833
0.029226858 -0.055 -0.014201529
0.031248434 -0.055 -0.014885578
0.040101044 -0.03454712 -0.019296572
0.027090935 -0.048560034 -0.039009545
0.03571929 -0.055 -0.014577769
0.036533795 -0.055 -0.014834985
0.037332032 -0.055 -0.014542513
0.0042521805 -0.055 -0.022202525
0.040457789 -0.055 -0.02577617
0.041140758 -0.055 -0.014336906
0.025498413 -0.042106114 -0.043358576
-0.0056833923 -0.033055563 -0.037908662
0.046805225 -0.055 -0.014448758
0.013720488 -0.0052122194 -0.047342461
0.049301963 -0.055 -0.014250782
0.026963761 -0.034901842 -0.030806262
0.052550722 -0.055 -0.01424317
0.054809317 -0.055 -0.014660768
0.051687982 -0.029695807 -0.03098812
0.056000002 0.00038497895 -0.044558227
-0.056000002 -0.053254731 -0.014143502
0.012065348 0.0032294663 -0.064000003
0.056000002 -0.052247673 -0.014492137
-0.056000002 -0.051782548 -0.014291176
0.056000002 -0.051423304 -0.014517199
-0.056000002 -0.050894901 -0.014303876
-0.055999998 -0.049775392 -0.014735216
0.056000002 -0.049886778 -0.014847772
-0.056000002 -0.048832871 -0.014452911
0.056000002 0.021066673 -0.017959155
-0.056000002 -0.047338329 -0.014025433
0.031207973 0 -0.051053945
-0.051807221 -0.044371877 -0.039308365
0.056000002 -0.046825048 -0.014598729
-0.056000005 -0.045463063 -0.014104117
0 -0.00064905919 -0.032409482
-0.05563749 -0.028677432 -0.031033685
-0.056000002 0.040649224 -0.053406127
-0.056000002 -0.042665951 -0.014542293
0.055530868 -0.022581689 -0.033954684
0.037325334 -0.012373685 -0.064000003
-0.056000002 -0.040660322 -0.014851141
0.056000002 -0.04030798 -0.014589403
0.022437306 0.055 -0.022912556
0.056000002 -0.039437998 -0.014536792
0.0079084206 -0.0057667159 -0.039426461
-0.037613466 -0.036892954 -0.03912092
0.0094677322 -0.055 -0.04378254
0.056000002 -0.036673181 -0.014745295
-1.8626451e-09 -0.041840538 -0.020707069
0.041905604 -0.033127148 -0.030975571
-0.056000002 -0.034518387 -0.014432186
0.056000002 -0.034429535 -0.01440874
-0.032757748 0.0063176434 -0.06400001
-0.04567375 -0.035840381 -0.023168582
0.056000002 -0.032074913 -0.014756817
-0.051543191 0.011630872 -0.022843283
0.025026428 -0.0065895393 -0.028928211
-0.056000005 -0.030758269 -0.014320502
0.056000002 -0.030913986 -0.014443863
0.01887548 -0.055 -0.040913686
0.056000002 0.022485472 -0.046189528
-0.056000002 -0.02858182 -0.014965433
-0.056000002 -0.027829682 -0.014475074
0.056000002 -0.027392015 -0.014448529
-0.056000002 -0.026504222 -0.014478418
-0.048305735 0.051554095 -0.064000003
-0.056000002 -0.025587779 -0.014433741
0.056000002 -0.025510598 -0.014564037
-0.056000002 -0.024545655 -0.014114361
0.0010698717 0.0067463135 -0.064000003
0.024407282 -0.016358476 -0.031183105
-0.048628725 -0.020166758 -0.031066891
-0.056000002 -0.021551231 -0.014242087
-0.044582762 -0.012439824 -0.064000003
0.038534593 -0.014864201 -0.064000003
0.056000005 -0.005813567 -0.02676736
-0.056000002 -0.019326903 -0.014740407
0.025847232 0.012930065 -0.044278719
-0.056000002 -0.018541984 -0.014655199
0.056000002 -0.018429669 -0.014852455
-0.056000002 -0.017754968 -0.014334959
0.040872864 -0.0023725368 -0.031083465
-0.05453096 -0.02030847 -0.064000003
0.056000002 -0.016562935 -0.014121857
-0.017983779 -0.036880024 -0.042172313
-0.056000002 -0.013991786 -0.014189724
0.034483619 -0.013372667 -0.02460154
-0.056000002 -0.012474033 -0.014216069
0.033502929 0.0065632258 -0.031452131
0.056000002 -0.011463039 -0.014426971
-0.056000002 -0.010455644 -0.014342022
0.056000002 -0.010204853 -0.014378336
0.029151378 0.0065438594 -0.015636407
0.056000002 -0.0088319276 -0.014750122
-0.056000002 0.049318887 -0.034513503
0.056000002 -0.0077422233 -0.014550356
-0.056000002 -0.0060476642 -0.014885604
-0.018590584 0.03290518 -0.064000003
-0.056000002 -0.026635766 -0.03110336
0.056000005 -0.014439943 -0.032434065
-0.041594725 0.032754987 -0.064000003
0.056000002 -0.0034230165 -0.01474461
-0.056000002 -0.0021991879 -0.01436309
0.056000002 -0.0026459508 -0.014531581
-0.056000002 -0.0019522142 -0.014675446
0.056000002 -0.0013349634 -0.014812661
0.008372467 0.055 -0.034271784
0.014818708 0.0064933971 -0.031530671
-0.056000002 0.0023060297 -0.014470911
-0.025830381 -0.055 -0.060717177
-0.056000002 0.0041888561 -0.014386017
0.011787209 0 -0.039964054
0.055999998 0.0050654337 -0.014173543
0.056000002 0.0058732294 -0.014611494
-0.056000002 0.0065502347 -0.014418893
0.022817271 -0.055 -0.037101343
0.056000005 0.0076734498 -0.014510277
0.056000002 0.0082458667 -0.014191955
-0.056000002 0.0096343094 -0.014722846
-0.054782972 0.055 -0.033703435
0 -0.018133361 -0.026781902
0.056000002 0.010902379 -0.014879193
-0.028000003 0.01598195 -0.021754477
0.056000002 0.011763822 -0.014599498
-0.0296473 0.055 -0.051514771
-0.018666668 0.022310764 -0.029202757
-0.056000002 0.0045792479 -0.037759684
0.056000002 0.015317678 -0.014606476
0.055999998 0.016200539 -0.014338473
0.056000002 0.0040204758 -0.037729584
0.056000002 0.017485365 -0.014407814
-0.056000002 0.018356489 -0.014313698
0.045210481 0.03656321 -0.023429642
0.056000002 0.019492157 -0.014842911
-0.044719003 0.055 -0.026153745
-0.056000002 0.021032359 -0.014819473
0.031516444 -0.013580544 -0.039310917
-0.056000002 0.023601517 -0.014387527
0.056000002 0.023499442 -0.014469743
-0.056000002 0.024091676 -0.014032478
0.056000005 0.024441913 -0.01465755
0 0.015645746 -0.036571451
-0.039118364 0.031656884 -0.02544982
0.0255908 -0.014428591 -0.028475024
-0.056000002 0.02717923 -0.014237404
0.056000002 0.027141958 -0.014870599
0.045624878 0.012970985 -0.027528446
-0.056000002 0.029500918 -0.014298496
-0.036751159 0.030416721 -0.039191987
0.056000002 0.030029822 -0.014440399
-0.056000002 0.03157625 -0.014357983
-0.056000002 0.032348558 -0.014684722
0.056000002 0.032102562 -0.014321199
-0.056000002 0.033008538 -0.014134163
0.038632814 -0.005023146 -0.039260451
-0.045004349 0.011650733 -0.023866434
0.056000002 0.034689095 -0.014678514
-0.037195243 0.051589321 -0.035222836
-0.056000002 0.036468491 -0.014410784
0.037690852 0.0043590199 -0.035975479
-0.056000002 0.037197277 -0.014949555
0.056000005 0.037679605 -0.014538957
-0.056000002 0.038679302 -0.014452698
0.056000002 0.0076988991 -0.021998711
-0.056000002 0.039138865 -0.014866373
-0.052878186 -0.006513726 -0.015771139
0.056000002 0.041454479 -0.014402428
-0.056000002 0.042456768 -0.014853828
0.055999998 0.044581536 -0.01440618
0.056000002 0.044851419 -0.014359483
-0.013607527 0.026217859 -0.041406441
-0.045412838 -0.02009958 -0.059884593
-0.056000002 0.04663261 -0.014410729
-0.056000002 0.047921635 -0.01407174
0.056000005 0.047485106 -0.01437355
-0.051036589 0.04514752 -0.031067573
0.046101205 0.044085808 -0.039449707
-0.056000002 0.049644046 -0.014503099
0.056000002 0.04948755 -0.014247939
0.056000002 0.050285067 -0.014893038
-0.056000002 0.051802143 -0.014405726
0.056000002 0.051647525 -0.014936553
-0.056000002 0.052551668 -0.014644608
0.050888658 -0.026068673 -0.045447439
-0.056000002 0.053597707 -0.01442801
-0.054462165 0.055 -0.014708235
-0.054074943 0.054069515 -0.019049451
-0.051964723 0.055 -0.014223474
-0.033869177 0.011834562 -0.050658785
-0.049933806 0.055 -0.014600324
-0.026213374 0.042639904 -0.031554554
-0.047878757 0.055 -0.014337484
0.0072223917 0.031636328 -0.019736607
-0.039261773 0.055 -0.014317191
-0.038325578 0.055 -0.014252327
-0.03688591 0.055 -0.014821389
-0.035696425 0.055 -0.014841812
-0.034690574 0.055 -0.014085377
-0.033808876 0.055 -0.014459522
-0.031557925 0.055 -0.014760461
-0.030270036 0.055 -0.01421308
-0.0287758 0.055 -0.01427746
-0.038480952 0.038211614 -0.026983788
-0.026314326 0.055 -0.014488529
-0.027900025 0.051079765 -0.039012469
-0.024190588 0.055 -0.014873561
-0.023698632 0.055 -0.014710509
-0.022587897 0.055 -0.014463964
-0.016511695 0.038920633 -0.026861822
-0.024616603 0.055 -0.02269017
-0.011670891 0.0054061799 -0.043308191
0.056000005 0.01223127 -0.027780727
-0.017999463 0.055 -0.014437735
-0.025938919 0.036288083 -0.031034617
-0.014231352 0.055 -0.014730411
-0.012499614 0.055 -0.014449161
0.00064136181 0.029498506 -0.0391597
-0.0085899271 0.055 -0.014372559
-0.007408224 0.055 -0.01439262
-0.0064200917 0.055 -0.014665483
-0.005524639 0.055 -0.014538986
-0.0044402555 0.055 -0.014948509
0.019162012 0.01901846 -0.039307848
-0.00093946606 0.055 -0.014263129
0.0016580289 0.055 -0.014458195
0.0029552551 0.055 -0.014730356
-0.026272027 0.024089139 -0.03236603
0.0052106455 0.055 -0.01484283
0.0068093883 0.055 -0.014585757
0.035711478 0.054999996 -0.028622806
0.0048966589 0.018333334 -0.022654785
0.010510949 0.055 -0.014447333
0.019542275 -0.055 -0.027238227
0.012284158 0.055 -0.014209962
0.014809191 0.055 -0.014960144
-0.020379439 0.031045575 -0.030283105
0.01665774 0.055 -0.014486189
0.018614996 0.055 -0.014533455
0.019996107 0.054999996 -0.014928028
0.02095668 0.055 -0.014081482
0.017186012 0.055 -0.014794998
0.0079335142 0.044211578 -0.032219857
0.025233407 -0.023620352 -0.045567192
0.025383711 0.055 -0.014329409
0.009273963 0.027499998 -0.018389929
0.023293719 0.019942345 -0.027377032
0.01400268 0.055 -0.018590145
0.029832795 0.055 -0.014370486
-0.056000002 -0.043413654 -0.019821536
0.034014642 0.054999996 -0.014283096
0.0056803999 0.038222473 -0.017540626
0.038065527 0.055 -0.0142007
-0.0029759509 -0.042050086 -0.064000003
0.0296281 0 -0.02599363
0.010315433 0.041141883 -0.0162348
0.044671513 0.055 -0.014647834
0.045080844 0.055 -0.014975563
0.046315026 0.055 -0.014605629
0.037719931 0.024888724 -0.039421037
0.04786969 0.039975919 -0.022491638
0.013241264 -0.018388622 -0.064000003
0.055753402 0.054769482 -0.014424808
0.030569453 0.055000003 -0.014158724
-0.0055890102 0.025714966 -0.034853809
-0.0558374 -0.054682344 -0.01325766
-0.05474183 -0.055 -0.013326176
-0.053106301 -0.055 -0.013595976
-0.051295899 -0.055 -0.013541111
-0.0039013568 -0.025621736 -0.038650889
-0.04954087 -0.055 -0.013293939
-0.048745461 -0.055 -0.013911417
-0.044695854 -0.055 -0.013375465
-0.043408319 -0.055 -0.013355978
-0.041790612 -0.055 -0.013611248
-0.040094562 -0.055 -0.013935795
-0.037311576 -0.055 -0.013764751
-0.036819063 -0.055 -0.013729421
-0.0097616641 -0.04672882 -0.041281641
-0.033926375 -0.055 -0.013310159
-0.031653665 -0.055 -0.013343095
-0.030498244 -0.055 -0.013744041
-0.029708046 -0.055 -0.013506731
-0.027204053 -0.055 -0.013575565
-0.026468594 -0.055 -0.013518608
-0.035691295 -0.055 -0.026078667
-0.023831289 -0.055 -0.013492176
0.026575021 -0.055 -0.022416597
-0.020973532 -0.055 -0.013376443
-0.018856307 -0.055 -0.013303455
-0.01598664 -0.049459811 -0.030496307
-0.013387082 -0.055 -0.013430166
-0.012563191 -0.055 -0.013390742
-0.029741935 0.055 -0.039101265
-0.056000002 0.025386542 -0.045020655
-0.013291368 -0.024840934 -0.041988134
0.036949996 0.0089884922 -0.047598358
-0.0068718195 -0.055 -0.013967043
-0.00501417 -0.054999996 -0.013270698
-0.0048676096 -0.055 -0.013380775
-0.0038136318 -0.055 -0.013270654
-0.0023252126 -0.055 -0.013132622
-0.0014425479 -0.055 -0.013765192
-0.00064291432 -0.055 -0.013437474
-0.014491599 0.039650366 -0.064000003
0.056000002 0.0095515326 -0.040145651
0.0028393101 -0.055 -0.013241617
0.029427804 -0.026274504 -0.038535692
0.0067136232 -0.055 -0.013815401
0.0079178195 -0.055 -0.013586625
0.0088665253 -0.055 -0.013954977
-0.0050787181 -0.026620403 -0.03026779
0.012392129 -0.055 -0.013121491
0.014336824 -0.055 -0.013386048
0.016446633 -0.055 -0.013509754
0.009708832 -0.020748129 -0.038528506
0.019351795 -0.055 -0.013398546
0.020734528 -0.055 -0.01355512
-0.0042903516 -0.053001657 -0.026595689
0.030371023 -0.047994714 -0.038781874
0.023767989 -0.055 -0.013491184
0.024857197 -0.055 -0.013309035
0.004604484 -0.025346488 -0.064000003
0.026698556 -0.055 -0.013424098
0.02791385 -0.055 -0.013145535
0.029422889 -0.055 -0.013496776
0.03032193 -0.055 -0.013491194
0.031934723 -0.055 -0.013415864
0.025967855 -0.034067858 -0.029868683
-0.010871228 -0.013478677 -0.01493365
0.03527993 -0.055 -0.013197824
0.036597472 -0.055 -0.013549944
-0.011729899 0.033262633 -0.064000003
0.039586462 -0.055 -0.013270661
0.041586749 -0.055 -0.01331028
0.042211633 -0.055 -0.013401727
0.014598547 -0.025733637 -0.03282604
0.044962265 -0.055 -0.013179503
-0.056000002 0.04634992 -0.038902406
0.047594205 -0.055 -0.013641527
-0.0002358593 -0.037718929 -0.026381485
0.05047968 -0.055 -0.013538916
-0.0022304617 -0.0098049864 -0.022603091
0.049154878 -0.024027621 -0.03044194
0.053859148 -0.055 -0.013232758
0.054055408 -0.055 -0.013672806
-0.032601677 -0.00068730116 -0.064000003
0.056000002 -0.054201014 -0.013814267
-0.055999998 -0.053936403 -0.013709901
-0.056000005 -0.052569743 -0.013699923
0 -0.013022693 -0.01477059
0.03290499 -0.036082767 -0.035095446
-0.056000002 -0.051490087 -0.013446381
0.021628013 -0.02410312 -0.047267713
-0.056000002 -0.050546933 -0.013477542
0.043320663 0.044663489 -0.064000003
-0.056000002 -0.049684316 -0.01343232
0.056000002 -0.049297102 -0.013948759
-0.056000002 -0.048858039 -0.013595324
0.056000002 -0.048040964 -0.0130553
0.047204088 -0.040521167 -0.030219607
-0.047919858 0.0045638569 -0.019317117
0.018134791 0.0091104247 -0.063298427
-0.056000002 -0.044473097 -0.013203729
0.056000002 -0.044091173 -0.013492637
-0.023291737 -0.005758265 -0.064000003
0.056000005 -0.043106399 -0.013613748
-0.056000002 -0.042385563 -0.013881052
0.022231519 0.0066848844 -0.026484827
-0.056000002 -0.040329762 -0.013836867
0.056000005 -0.040589355 -0.013554263
-0.015313672 0.02813397 -0.064000003
0.056000002 -0.039513323 -0.013542541
-0.056000002 -0.038574658 -0.013577625
-0.056000002 -0.037737127 -0.013650954
0.0072630085 0.008837875 -0.032286115
-0.056000002 -0.036650177 -0.01379871
0.024766542 -0.042678945 -0.029356694
-0.056000002 -0.035577696 -0.013430474
0.056000002 0.054423988 -0.039798405
-0.056000005 -0.03431711 -0.013327347
-0.056000002 -0.034806952 -0.013946658
0.056000002 -0.03311586 -0.01345323
0.028802456 -0.055 -0.018015938
-0.056000002 -0.031991825 -0.013332191
-0.056000002 -0.031885102 -0.036382403
-0.014720118 0.012161899 -0.018672386
0 0.0026478861 -0.016627029
0.056000002 -0.029422969 -0.013299478
-0.056000002 -0.028758088 -0.013105164
0.056000002 -0.028359324 -0.013856933
-0.024989553 -0.039755791 -0.038510695
0.056000002 -0.027860139 -0.013433684
-0.056000002 -0.026465066 -0.013982007
0.056000002 -0.026378514 -0.013353431
-0.056000002 -0.02564406 -0.013685613
-0.056000002 -0.023471871 -0.062153928
-0.056000005 -0.024546314 -0.013433229
0.022487782 0.047179047 -0.023062043
0.056000002 -0.023531217 -0.013735481
-0.056000002 0.043327019 -0.05645676
-0.031269047 -0.055 -0.050842747
-0.056000002 -0.021407414 -0.013545609
0.056000002 -0.021395374 -0.013640433
-0.056000005 -0.020537136 -0.013789199
-0.056000002 -0.020786731 -0.013490872
-0.056000002 -0.01910652 -0.013897814
-0.010557264 0.0050324462 -0.038493931
-0.030684872 -0.015673704 -0.038750298
0.045751046 -0.012233603 -0.027852323
-0.055118486 -0.030958001 -0.038514528
-0.056000002 -0.016438091 -0.013527758
-0.042922061 -0.0050016576 -0.036182366
0.056000002 -0.015151357 -0.013591431
-0.056000002 -0.014321227 -0.013358484
-0.046220046 0.010897952 -0.026010452
0.055080771 -0.016573515 -0.046890285
-0.056000005 -0.012618572 -0.013264826
-0.056000002 -0.011794699 -0.013119651
0.056000002 -0.011142759 -0.013103679
-0.013356244 0.018788848 -0.064000003
0.056000002 -0.010711554 -0.013378445
-0.056000002 -0.0091955885 -0.013704263
0.056000002 -0.009706351 -0.013470685
-0.030143915 -0.0201681 -0.025237581
-0.056000002 -0.0074846204 -0.013848411
0.056000002 -0.0073020197 -0.013217395
-0.010834628 -0.021546334 -0.064000003
-0.011930306 -0.030416487 -0.037276849
-0.056000002 -0.0048462525 -0.013079017
-0.018666668 0.0060513364 -0.02067378
-0.056000002 -0.0024897009 -0.013212373
0.035034724 -0.0025896691 -0.038667891
-0.056000002 -0.0015599616 -0.01325842
0.0023705773 -0.028497122 -0.03122006
-0.056000002 -0.00052629784 -0.013604676
0.044484511 -0.0081353467 -0.030564781
-0.0092649991 0.055 -0.035780028
-0.056000002 0.0018860633 -0.013596371
0.056000002 0.0017638132 -0.013973361
-0.048611708 0.0027172565 -0.026489561
0.055999998 0.0025468525 -0.013797468
0.056000002 0.002394964 -0.0133546
-0.056000002 -0.011610574 -0.016494924
-0.056000002 0.0055938661 -0.013192724
0.035620883 0.017823858 -0.017659318
-0.023592919 -0.0045086183 -0.047127508
-0.014400846 0.014812959 -0.064000003
-0.056000002 0.0072364612 -0.013322266
-0.05084246 0.045601733 -0.064000003
-0.056000002 0.0084210802 -0.01399222
0.056000002 0.0082646981 -0.013511332
0.055999998 0.0097807292 -0.013638623
0.056000002 0.04628934 -0.049964756
0.056000005 0.010148941 -0.013369877
-0.056000005 0.011517603 -0.013700865
0.056000002 0.011861831 -0.013653455
-0.056000002 0.012127738 -0.013274888
-0.056000002 -0.025480181 -0.02231862
-0.056000002 0.0147738 -0.013805198
0.056000005 0.014657008 -0.013650923
-0.056000002 0.015351716 -0.013598706
-0.00040656049 -0.020431699 -0.064000003
0.014901361 0.0082190838 -0.038917851
-0.056000002 0.017460605 -0.013232231
0.056000002 0.017812517 -0.01301934
0.056000005 0.018319301 -0.013616251
0.0018461347 -0.055 -0.017616106
0.0066313515 0.0017610285 -0.061881021
-0.018666668 -0.0023965891 -0.019440394
-0.037092999 -0.022907883 -0.055685725
0.056000002 0.023368802 -0.013823425
-0.0090708304 0.00028956309 -0.064000003
-0.024363775 -0.025355332 -0.064000003
-0.0049492721 -0.055 -0.051420018
0.056000005 0.026325163 -0.013421132
-0.056000002 -0.00049232319 -0.024000663
-0.023774263 0.0419835 -0.039774336
0.056000002 0.028043563 -0.01364811
-0.056000002 0.036248207 -0.025447872
0.055999998 0.030853326 -0.013448032
-0.011245776 -0.055 -0.043274254
0.0037079751 0.048603833 -0.064000003
0.056000002 -0.047244594 -0.027955484
-0.056000002 0.033228032 -0.01328039
0.056000002 0.033624988 -0.013536514
0.056000002 0.026289418 -0.022957001
-7.2330236e-05 0.045147285 -0.031817332
-0.056000002 0.04634992 -0.038902406
-0.055999998 0.036909226 -0.013427222
0.056000002 0.023343261 -0.014583557
-0.056000002 0.037335016 -0.013847329
0.056000002 0.037304688 -0.013258172
0.028000001 0.022011729 -0.01455093
-0.022409849 -0.055 -0.047920115
0.056000002 0.04033893 -0.013588486
-0.011888055 0.020023469 -0.064000003
0.056000005 0.041593276 -0.013867883
-0.056000005 0.042809945 -0.013679897
0.056000002 0.042947829 -0.01387375
0.056000002 0.020461095 -0.060852595
0.056000002 0.044827782 -0.013834558
-0.032757748 0.0063176434 -0.06400001
-0.056000002 0.046210688 -0.013578691
0.056000002 0.046047896 -0.013823211
-0.056000002 0.047010254 -0.013371943
0.044206247 0.055000003 -0.053202268
-0.056000002 0.048414074 -0.013487719
0.056000002 0.048218008 -0.013277315
-0.056000002 0.049662784 -0.013606833
0.056000005 0.04953333 -0.013670385
0.056000002 0.050774515 -0.013557225
0.024098866 0.0030433517 -0.064000003
-0.056000002 0.052531384 -0.01349395
-0.056000002 0.053992432 -0.013048172
0.055999998 0.053195469 -0.013193408
0.056000002 0.0539499 -0.013620719
-0.053188056 0.055 -0.013723777
-0.016587533 0.015615966 -0.036523163
-0.050165709 0.055 -0.013091364
-0.049175359 0.055 -0.013502349
-0.050114922 0.004812574 -0.034744881
-0.042791553 0.055 -0.013834513
-0.043923818 0.019257484 -0.030205345
-0.016225578 0.038183048 -0.018358896
-0.018991113 0.024112387 -0.030224659
-0.035575978 0.053044889 -0.038921271
-0.003410616 0.011610623 -0.038885813
