# .PCD v0.7 - Point Cloud Data file format
VERSION 0.7
FIELDS x y z
SIZE 4 4 4
TYPE F F F
COUNT 1 1 1
WIDTH 1216
HEIGHT 1
VIEWPOINT 0 0 0 1 0 0 0
POINTS 1216
DATA ascii
-0.0069485358 -0.019113889 -0.0018098268
-0.045518219 -0.054000001 -0.00071757485
-0.044426784 -0.054000005 -0.00058294641
-0.043484975 -0.054000005 -0.00041854684
-0.042806551 -0.053999998 -0.00097265828
-0.041738313 -0.053999998 -0.00047412244
-0.040065706 -0.053999998 -0.00086074602
-0.038295075 -0.054000001 -0.00044143049
-0.037777349 -0.054000005 -0.00087316032
-0.034156702 -0.049036395 -0.0013518083
0.011646944 0.023759589 -0.0049999999
-0.00010609161 -0.017840562 -0.0025741081
-0.010650855 -0.0082994588 -0.0026018382
-0.026418369 -0.054000001 -0.00064225041
-0.025668219 -0.053999998 -0.00011397235
-0.024106018 -0.053999998 -0.00017793966
-0.023473948 -0.054000005 -0.00050205248
-0.022758104 -0.053999998 -0.00052290445
-0.026664278 -0.022619125 -0.0029011453
-0.02046429 -0.054000005 -0.00061509456
-0.019424373 -0.053999998 -0.00058008509
0.075625896 -0.034378346 -0.0049999999
-0.01700788 -0.054000001 -0.0005234984
-0.016374625 -0.054000005 -0.00072142517
-0.029840421 -0.047262829 -0.0020364639
-0.014144078 -0.054000001 -0.00013859966
0.010017432 -0.0059798188 -0.0035232278
-0.012700059 -0.054000009 -0.0006655475
0.011360071 -0.041547522 -0.001876994
-0.0094009954 -0.054000001 -0.00068301085
-0.0089837164 -0.054000005 -0.00076277659
-0.007643573 -0.054000005 -0.00053979538
-0.0062864497 -0.053999998 -2.7620699e-05
-0.0055802818 -0.054000001 -0.00083159644
0.017709654 -0.00013943203 -0.0023206756
-0.0034958646 -0.054000001 -0.00014398061
-0.0023055319 -0.054000005 -0.00068638485
-0.0011955798 -0.054000001 -0.00034684478
-0.0035338483 -0.020671591 -0.0034528242
0.00035705417 -0.054000001 -0.00055996526
0.0019736923 -0.053999998 -0.00059204269
-0.027101822 -0.0094449809 -0.0029473123
-0.0095154084 -0.042063296 -0.0021148014
0.0058099404 -0.054000001 -0.00098818413
0.0068131909 -0.053999998 -0.00047726836
-0.0303791 -0.02368487 -0.0029677018
0.0093394443 -0.054000001 -0.00073758955
0.010396607 -0.054000005 -0.0007461831
0.035348214 -0.021207027 -0.0029195882
0.012857091 -0.053999998 -0.00077240728
0.015468031 -0.054000005 -0.00095383497
0.016181223 -0.054000001 -0.00094056292
0.020915721 -0.028237743 -0.0015376811
0.018393332 -0.053999998 -0.0005624129
0.016072968 -0.048379987 -0.0012420157
0.020506497 -0.054000001 -0.00040489365
0.021414898 -0.053999998 -0.00079299393
0.029224714 -0.053425975 -0.0018555501
0.023484521 -0.054000001 -0.00038596569
0.024382766 -0.054000005 -0.00040658575
0.026286926 -0.054000001 -0.00056082208
0.033357494 -0.040543392 -0.0049999999
-0.059053279 -0.0054310365 -0.0049999999
0.030093869 -0.054000001 -0.00087395776
0.031134946 -0.054000001 -0.00056999456
0.02921905 -0.041573454 -0.0015285676
0.033179555 -0.054000005 -0.00074444641
0.034198564 -0.054000001 -0.00065814343
0.035251942 -0.054000005 -0.00072698039
0.036501288 -0.054000001 -0.00023922557
0.037600663 -0.053999998 -0.00076112349
0.039725065 -0.053999998 -0.00032834488
0.040480945 -0.054000001 -0.00025996286
0.04125246 -0.054000001 -0.00059431687
0.042779848 -0.053999998 -0.0005040206
0.043632083 -0.054000005 -0.00028353208
0.045369741 -0.054000001 -0.00077781547
0.046123825 -0.053999998 -0.00093086285
0.047416862 -0.054000001 -0.00047499276
0.05102364 -0.020079816 -0.0021234201
0.052320141 -0.01280221 -0.002910729
0.03364509 -0.050083142 -0.0017430105
0.049305335 -0.03017116 -0.0019354414
0.05290322 -0.054000005 -0.00063545152
0.053392123 -0.054000001 -0.0007402479
0.050975524 -0.051367007 -0.0015866513
0.062123559 -0.030736113 -0.0025960114
0.038480725 -0.046174761 -0.0021690705
0.058613569 -0.054000005 -0.00058440003
0.059335843 -0.054000001 -0.00058514997
-0.026296213 0.010723181 -0.0049999999
0.055595756 0 -0.0026720222
0.06342081 -0.054000001 -0.00057342672
0.0059018387 -0.014472163 -0.0025302295
0.065455489 -0.054000005 -0.00094019296
0.066603832 -0.054000005 -0.00049579504
0.067030013 -0.054000005 -0.00042192196
0.068517379 -0.053999998 -0.00016485108
0.047937825 -0.024111543 -0.0027502333
0.070452131 -0.053999998 -0.00038356474
0.071505331 -0.054000001 -0.00067554857
0.072459221 -0.053999998 -0.00023930671
-0.043563776 -0.0035315463 -0.0049999999
-0.046138741 -0.036908045 -0.0049999999
0.07667876 -0.053999998 -0.00045870524
0.077923961 -0.054000001 -0.0003320754
0.078662127 -0.054000005 -0.00048893259
0.07944639 -0.053999998 -0.00066654885
0.080045618 -0.054000001 -0.00032427313
0.08123906 -0.054000001 -0.00054735737
0.082798272 -0.053999998 -0.00092523708
0.083569527 -0.054000005 -0.00072535872
0.057111241 -0.037577871 -0.0019275941
0.085881889 -0.054000001 -0.00067772157
0.086199284 -0.053999998 -0.00053582015
0.087677509 -0.054000001 -0.00068898033
0.088831455 -0.053638034 -0.00053694408
-0.089000009 -0.052657515 -0.00047439896
0.089000009 -0.052166186 -0.0002926114
-0.089000009 -0.051659834 -0.00050656841
0.077359766 -0.029526841 -0.0016698517
-0.068069443 -0.0075462647 -0.0027849956
0.070393845 0.0032385681 -0.0035689778
-0.089000002 -0.049760412 -0.0005343036
0.089000002 -0.049341209 -1.3125129e-05
-0.054313537 -0.044730686 -0.0014712609
0.089000009 -0.048654996 -0.00036398321
-0.089000002 -0.047371693 -0.00092250295
0.012777297 -0.027809434 -0.0049999999
-0.046919215 0.047366016 -0.0049999999
0.089000002 -0.046815876 -0.00026438222
-0.089000002 -0.045689933 -0.0004309183
0.059169449 -0.041856937 -0.0025558691
-0.083457872 -0.032683846 -0.0019306943
0.089000002 -0.044627417 -0.00089548808
-0.089000002 -0.04319647 -0.00049627083
0.089000009 -0.043593824 -0.00042806962
-0.03163686 -0.02022652 -0.0028499279
-0.083869807 -0.040864974 -0.0019895723
0.089000002 -0.04146757 -0.00034971055
-0.089000002 -0.040149212 -0.00070561655
0.033093326 -0.039752997 -0.0018289689
-0.089000009 -0.039547056 -0.00037374612
0.089000009 -0.039469391 -0.00064805942
-0.043266617 -0.0038111806 -0.0025399551
0.089000002 -0.038589593 -0.00044484122
-0.089000002 -0.037477165 -0.00060032925
-0.055874187 -0.028012369 -0.0015658261
0.057922982 -0.032029286 -0.0020064884
-0.089000009 -0.0078083314 -0.0010942245
0.089000002 -0.035412822 -0.00077001657
-0.089000002 -0.034408651 -0.00041537709
0.089000009 -0.034284815 -0.00058462581
-0.04412704 -0.0044112592 -0.00099384075
0.089000002 -0.033929087 -0.00016623735
0.087137759 -0.0292299 -0.001439026
-0.01972908 -0.01515948 -0.0027896147
0.089000002 -0.031767346 -0.00049471855
-0.089000002 -0.030939948 -0.00046726037
0.072918259 -0.028364483 -0.0013821715
0.089000002 -0.0056958599 -0.0012781481
-0.053622488 -0.017474277 -0.0017333516
0.089000002 -0.028291319 -0.00097936974
0.055587668 -0.010467734 -0.0049999999
0.04224854 -0.031887967 -0.0027795832
-0.089000002 -0.026073614 -0.00061468175
0.089000002 -0.026974656 -0.00090804906
0.089000002 -0.025260147 -0.00011217641
0.030143894 -0.027062114 -0.0028556632
-0.089000002 -0.023316626 -0.00040968368
0.089000002 -0.023509169 -2.40386e-05
-0.089000002 -0.022362627 -0.00059242512
0.032093566 -0.0027527211 -0.0036265943
-0.081272028 -0.017212724 -0.0014628235
0.082393833 -0.02170518 -0.0016228021
-0.089000002 -0.020476162 -0.00032513915
0.089000002 -0.020742599 -0.00066308677
-0.089000009 -0.019474909 -0.00054419215
-0.089000009 -0.018685818 -0.00067392195
0.089000002 -0.018232649 -0.00068299368
-0.078632951 -0.0098403003 -0.0016361154
-0.089000002 -0.01647846 -0.00042198156
0.089000002 -0.016442165 -0.00010107609
-0.089000009 -0.015257699 -0.00059742061
0.089000002 -0.015412582 -0.00026490877
-0.089000002 -0.014897828 -0.00055397162
0.089000009 -0.014528091 -0.00037829805
-0.089000002 -0.013335396 -0.00083836121
0.089000002 -0.012332619 -0.00011606701
-0.046824854 -0.010767603 -0.002182913
0.089000002 -0.011462416 -0.00067801471
-0.037795197 -0.0026153328 -0.0025534097
0.089000002 -0.010786198 -0.00087059825
-0.089000002 -0.0096196253 -0.00036705611
-0.089000002 -0.0087827193 -0.00066249864
0.089000002 -0.0083735306 -0.0003956079
-0.089000002 -0.0075837355 -0.00092662219
0.050928548 -0.030951086 -0.00053079252
-0.089000002 -0.0065329289 -0.00037799333
0.089000009 -0.0064652371 -0.0003670016
-0.0030902065 -0.0098384432 -0.0036053839
0.087618493 -0.015580483 -0.0016789188
-0.089000002 -0.0046773292 -0.00051925122
0.089000009 -0.004728415 -0.00078537007
-0.089000002 -0.0034069456 -0.00056966534
0.053400006 -0.0064291777 -0.00066407915
-0.089000009 -0.0024439837 -0.00051273627
0.077956676 -0.0060568168 -0.0015371942
-0.089000002 -0.0017781351 -0.00051257689
0.089000002 -0.0014803074 -0.00090357347
-0.060745984 -0.017112074 -0.0027911197
0.089000002 -0.00039446354 -0.00056802749
-0.089000009 0.00052779791 -0.00035179834
0.089000002 0.00052898005 -0.00027879444
-0.071050413 0.013189073 -0.0019971849
0.089000002 0.0012990367 -0.00062388333
-0.089000002 0.0025522225 -0.00013656751
0.088608973 0.0080758035 -0.0012009371
-0.089000002 0.0034492239 -0.00022903574
0.089000002 0.0032157674 -0.00044372585
-0.089000002 0.0045526177 -0.00016520184
0.034741372 -0.023083754 -0.0029840129
0.071598083 0.0025806502 -0.0012046876
-0.089000002 0.0064494684 -0.00038126658
0.089000009 0.0062227133 -0.00044124614
-0.089000002 0.0073309783 -0.00036764372
0.065103658 0.0094551276 -0.0020381571
-0.089000002 0.0083489604 -0.00070382794
0.089000002 0.0083493292 -1.9830652e-05
0.089000002 0.0091207447 -0.00062930875
-0.089000009 0.0105059 -0.00036494684
0.089000002 0.010365654 -0.0007158767
-0.02007499 -0.020330844 -0.0021939473
0.049051277 0.019671123 -0.0029323113
-0.011852499 0.033209987 -0.0026254826
0.089000002 0.012563267 -0.00073799095
-0.089000002 0.013762791 -0.00084842835
0.080677621 0.012441091 -0.001112478
-0.089000002 0.014461618 -0.00026734348
0.089000002 0.014185023 -0.00037849037
-0.089000002 0.015488956 -0.00059070007
0.089000002 0.015308014 -0.00057939993
-0.089000002 0.01637001 -0.00066571869
0.077067293 0.0064619677 -0.0013540497
0.089000002 0.017650811 -0.00069106696
-0.089000002 0.018316459 -0.00049177243
0.089000002 0.01815832 -0.00087556621
-0.03071221 0.033247881 -0.0027116237
-0.089000002 0.020907076 -0.00078041502
0.089000009 0.020696677 -0.00052599498
-0.071151465 0.025351478 -0.0022198355
0.089000002 0.021319868 -0.00028837682
-0.089000002 0.022547998 -0.00017821562
0.089000009 0.022458624 -0.00038346075
-0.089000002 0.023455601 -0.00044858886
0.061278891 0.016440334 -0.0023189439
-0.029978419 -0.0043037664 -0.0027211297
0.089000002 0.024975397 -0.00066984323
-0.079095922 0.026133103 -0.0016104942
-0.03631822 -0.029363491 -0.0049999999
-0.029275239 0.017493851 -0.0039642183
0.030093869 -0.054000001 -0.00087395776
-0.068275981 0.013264877 -0.0013652008
0.089000002 0.027767196 -0.00051106949
-0.033442792 0.0047900826 -0.0034734346
0.021809787 0.002413719 -0.0026995467
-0.089000002 0.029905085 -0.00071544386
0.089000002 0.029551601 -0.00066147972
-0.053766973 -0.0092158485 -0.002939377
0.054192491 -0.0013554089 -0.0017787429
-0.084448241 0.021255635 -0.00099834835
0.089000002 0.031153854 -0.00042843597
-0.089000009 0.03234265 -0.00072504906
0.04299004 0.0072787679 -0.0019447029
-0.089000002 0.033459757 -0.00050362869
0.089000002 0.033683345 -0.0003547683
-0.089000002 0.034220669 -0.00026207144
0.064177506 0.033610843 -0.0017447587
-0.089000009 0.035568558 -0.00063612673
0.07743223 0.039402325 -0.0015779035
-0.089000002 0.036108352 -0.00094199972
0.060724378 0.023167532 -0.0011960603
-0.089000009 0.037876979 -0.00058099366
-0.089000002 0.038243219 -0.00074098405
-0.089000002 0.039633118 -0.00019121714
0.089000002 0.039056253 -0.00055948354
-0.061882775 0.025509281 -0.0018260051
0.089000002 0.040460356 -0.00053907663
-0.089000002 0.041470185 -0.0001927687
0.061969072 0.036166172 -0.0015435148
-0.021283686 -0.031645328 -0.0049999999
0.030360211 0.022791253 -0.0026381221
-0.069428682 0.027460188 -0.0013762402
0.089000002 0.043768071 -0.00038875552
-0.089000002 0.04400837 -9.8880235e-05
0.089000002 0.044706888 -0.00046396011
-0.089000002 0.045526378 -0.00049781968
0.089000009 0.045487262 -0.0006815166
-0.065193065 0.04521051 -0.0025160182
0.089000009 0.046533197 -0.00054312206
-0.039713308 0.021497011 -0.0020297132
0.035255119 0.0048536379 -0.0029899122
-0.012411248 0.041277733 -0.0012463722
0.089000002 0.048665702 -0.00069253769
-0.089000002 0.049557745 -0.00054572115
0.089000002 0.049167145 -0.00022361119
-0.049440399 0.051438533 -0.0013650133
0.074266709 0.035269275 -0.0022731926
-0.089000002 0.051042985 -0.00032408859
0.089000002 0.051779553 -0.00049579109
-0.054504137 0.047446292 -0.0019388811
0.089000002 0.052882038 -0.00036555374
-0.057211772 0.032857139 -0.0016259645
-0.087228432 0.053999998 -0.00012377436
-0.083438948 0.053999998 -0.00073871051
-0.081088454 0.053999998 -0.00098224392
-0.077749252 0.054000001 -0.00037404872
-0.03116997 0.035080694 -0.0025840658
-0.07401666 0.053999998 -0.00064356555
-0.071892768 0.053999998 -7.6705473e-05
-0.068736389 0.019917306 -0.002029526
0.046539661 0.037383802 -0.0049999999
-0.071410321 0.017258178 -0.0027035582
-0.067804009 0.053999998 -0.00066037063
-0.05329961 0.017900893 -0.0029967097
-0.064122841 0.053999998 -0.00016259926
-0.062441915 0.053999998 -0.00017443835
-0.042286187 -0.0085356655 -0.0049999999
-0.052863896 0.053999998 -0.00020812883
-0.051028028 0.053999998 -0.00029743259
-0.047218248 0.053999998 -0.00079950492
-0.043554232 0.053999998 -0.00027104968
-0.04175587 0.053999998 -6.6248002e-05
-0.040582761 0.053999998 -0.0001467095
0.040129803 0.018711654 -0.0039279805
-0.034124784 0.053999998 -0.00046190701
-0.021635344 0.052480634 -0.0049999999
-0.0048008831 -0.050684601 -0.0049999999
-0.028816469 0.053999998 -0.00098257279
-0.060805514 -0.037272152 -0.0029319227
-0.024724677 0.054000001 -0.00047758405
-0.0211652 0.053999998 -0.00041043211
0.043285213 -0.029365435 -0.0049999999
0.041426994 0.045180008 -0.0049999999
-0.019911632 0.011767171 -0.00309257
-0.014924258 0.053999998 -6.0989289e-05
-0.013198093 0.053999998 -0.00085009402
-0.011379605 0.053999998 -0.00060404534
-0.037644252 -0.040575143 -0.0049999999
-0.0047441572 0.053999998 -0.00024050963
-0.0024413168 0.053999998 -1.7739367e-06
0.0011178181 0.053999998 -0.00085537974
0.008963801 0.053999998 -0.00071670813
0.011405002 0.053999998 -0.00080998847
0.01200811 0.053999998 -0.00095484545
0.015232623 0.053999998 -0.00092713768
0.021456333 0.053999998 -0.00051763048
0.024652224 0.053999998 -0.0006606559
0.025401056 0.053999998 -0.00064230245
0.026414499 0.053999998 -0.0007280875
0.011685337 0.028292201 -0.0025774394
0.03211794 -0.009772962 -0.0049999999
-0.058298413 0.00081078196 -0.0049999999
0.043860365 0.053999998 -0.00057414966
-0.049346961 0.019467425 -0.0049999999
0.048754983 0.053999998 -0.00079089357
0.049356047 0.053999998 -0.00048054103
0.043601505 0.046769351 -0.0020302706
0.055728111 0.053999998 -0.00084439386
0.058368944 0.053999998 -0.00063443976
0.063063696 0.053999998 -0.00092737516
0.064217195 0.053999998 -4.9220398e-06
-0.018623944 0.01682429 -0.0049999999
0.037490621 0.014332902 -0.0027374933
0.074435934 0.053999998 -0.00039800163
0.079500437 0.053999998 -0.00063151144
0.080363676 0.053999998 -0.00093146972
0.010255928 0.022064114 -0.0049999999
0.011320768 0.00030694529 -0.0029047213
-0.088650107 0.054000005 -0.00053633295
-0.087753415 0.054000009 -0.00054565334
-0.086361542 0.054000001 -0.00014928119
-0.085388958 0.054000005 -0.00046212334
0.078729831 -0.0092751663 -0.0049999999
0.034721848 -0.010623371 -0.0049999999
-0.074393265 0.03225093 -0.0025104634
-0.080864638 0.054000001 -0.00095334463
-0.047601521 0.052540701 -0.0015959613
-0.077493072 0.054000005 -0.00080512319
-0.07684499 0.054000001 -0.00027035305
-0.075637013 0.054000001 -0.00029512966
-0.073397487 0.054000001 -0.00012631612
-0.069242977 0.038763858 -0.0020084872
-0.032848891 0.027000001 -0.00029244926
-0.07063736 0.054000001 -0.00090325536
-0.069248572 0.054000005 -0.00085231813
-0.068659112 0.054000005 -0.00090895803
-0.067516863 0.054000005 -0.00016992469
-0.066549689 0.054000005 -0.00060851674
-0.065415815 0.054000005 -0.00054830895
-0.06458348 0.054000005 -0.00049983925
-0.063692808 0.054000001 -0.00051163911
-0.00061246753 0.028052449 -0.0026191748
-0.059321418 0.054000005 -0.00010124553
-0.057525031 0.054000005 -0.00018395958
0.029856909 0.035274457 -0.0049999999
-0.055452831 0.054000005 -0.00031748923
-0.054519873 0.054000005 -0.0006399136
-0.052501827 0.054000005 -0.00081388088
-0.050084826 0.054000001 -0.00070343737
-0.0476119 0.054000001 -0.00030844385
-0.02864217 0.047475811 -0.0018400159
-0.045596369 0.054000001 -0.00072104367
-0.013491914 0.054000001 -0.0010333724
0.012268655 0.016779976 -0.0028848841
0.01981204 0.012699801 -0.0029628482
-0.040441688 0.054000005 -0.00039051118
-0.026418369 -0.054000001 -0.00064225041
-0.03641703 0.054000001 -0.0006435269
-0.034285109 0.054000005 -0.00034435955
-0.033600993 0.054000005 -0.00034180202
0.0038954783 0.0026930869 -0.0029642344
-0.049458407 0.025865611 -0.0019418941
-0.030716961 0.054000001 -0.0003192781
-0.029943593 0.054000001 -4.0197861e-05
-0.028293436 0.054000001 -0.00025644724
-0.027233427 0.054000005 -0.00048229808
-0.026670173 0.054000005 -0.0002710952
0.011610745 -0.0041594002 -0.0049725138
-0.023648679 0.054000001 -0.00074691721
-0.022299837 0.054000005 -0.00033570846
-0.021635629 0.054000001 -0.00095168978
-0.018325569 0.043233555 -0.0025251848
-0.0046085506 0.02622441 -0.0028754035
-0.029794723 -0.0085748229 -0.0049999999
0.041279659 -0.014910426 -0.0049999999
-0.016450994 0.054000001 -0.00071830198
-0.015045006 0.054000001 -0.00098077534
-0.014030401 0.054000001 -0.00017171004
-0.012261689 0.047514733 -0.0010302489
-0.012357265 0.054000001 -0.00062006759
0.03279509 0.030254602 -0.0024491993
-0.010561761 0.054000001 -0.00066016335
-0.0091844704 0.054000001 -0.00049568247
0.045425531 0.034365665 -0.0034928825
-0.0071879514 0.054000001 -0.0007273145
-0.0069560856 0.054000001 -0.00073266402
0.017781373 0.041834697 -0.0020440649
-0.0048122443 0.034906991 -0.0014926711
-0.0038548596 0.054000001 -0.00041797501
-0.0026671838 0.054000005 -0.00072526222
-0.0013649035 0.054000001 -0.00079775322
0.069421649 -0.046012226 -0.0049999999
-0.0023346606 0.018000001 -0.0016068638
0.0020121075 0.054000001 -0.00027388521
0.035652041 0.0013189986 -0.0026170099
-0.0088866102 0.05327059 -0.0014171422
0.0052839145 0.054000001 -0.00024240115
0.0063765151 0.054000005 -0.00091184746
0.0073145032 0.054000001 -0.00038812635
0.03395357 0.0075414572 -0.0026033896
0.0096725263 0.054000001 -0.00064577698
0.010504045 0.054000001 -0.00053301489
0.011481783 0.054000001 -0.00021201912
0.013527512 0.054000001 -0.00065085921
0.015317366 0.054000001 -0.00031221364
0.0075289477 0.030227458 -0.0020763166
0.017254889 0.054000001 -0.00062164804
0.019606015 0.054000001 -0.00036416249
0.03229079 0.010121424 -0.0049999999
0.021227429 0.054000001 -0.00036488939
0.022297556 0.054000001 -0.00050849374
0.039991941 0.04659918 -0.0016293781
0.025435591 0.054000005 -0.00054934924
-0.0040347613 0.017156729 -0.0027299526
0.0094607593 0.0089810826 -0.0029843305
0.028621126 0.054000005 -0.00024452223
0.029925672 0.054000001 -0.00073330337
0.044845443 0.053485181 -0.0019950967
0.031170975 0.054000001 -0.00024050847
0.032081336 0.054000005 -0.00094125792
0.033580706 0.054000001 -0.00053104875
0.035639495 0.054000005 -0.00075045903
0.037648931 0.054000005 -0.00068902085
0.038453914 0.054000001 -0.00039397553
0.021772612 -0.0055283895 -0.0049999999
0.040326864 0.054000001 -8.9631882e-05
-0.021295896 0.038143869 -0.0027517562
0.042576894 0.054000001 -0.00029462398
0.043666594 0.054000001 -0.0003075772
0.079442099 0.015601687 -0.0049999999
0.045228831 0.054000001 -0.00043150759
0.046744876 0.054000001 -0.00037328503
0.019423243 0.033321161 -0.0027817984
0.048389085 0.054000001 -0.00095387036
0.050324827 0.054000005 -0.00037925504
0.0519289 0.054000005 -0.00016218005
0.05225794 0.051594473 -0.0027067061
0.054197527 0.054000005 -0.0001653377
0.058985371 -0.023963254 -0.0049999999
0.056793768 0.054000001 -0.00016781269
0.057268653 0.054000005 -0.00093794148
-0.0080781952 0.01077139 -0.0027185958
0.059429534 0.054000005 -0.0003949746
0.060376626 0.054000001 -0.00033122115
0.062329918 0.054000001 -0.0002493686
0.024939096 0.038312782 -0.001992468
0.0017979704 0.036757134 -0.0029693022
0.068963945 0.054000001 -0.00053581642
0.042824306 0.041081212 -0.0025846781
0.072506592 0.054000005 -0.00059681013
0.05461289 0.054000001 -0.00055911968
0.075571731 0.054000001 -0.00034819762
0.012696369 0.0021934807 -0.0029926661
0.078325108 0.054000001 -0.00034689996
0.081330195 0.054000001 -0.00019949893
0.082585186 -0.027439764 -0.0049999999
0.059365064 -0.00075742695 -0.0049999999
0.085469455 0.054000001 -0.0008929153
0.086412594 0.054000005 -0.00031614513
0.087442562 0.054000001 -0.00036636903
-0.080711335 -0.040651679 -0.0049999999
-0.08018665 -0.053180624 -0.00022691322
-0.087491296 -0.054000001 0.00028322247
-0.086611167 -0.053999998 0.00095805124
-0.0063032433 -0.02419408 -0.0022919071
-0.08369036 -0.054000001 0.00035026809
-0.082612634 -0.054000001 0.00019951709
-0.081992447 -0.054000005 0.00067560945
-0.067486271 -0.03933166 -0.0014231823
-0.079692796 -0.054000005 0.00046040438
-0.07742516 -0.054000001 0.00065535738
-0.076754756 -0.054000005 0.00073111051
-0.075242534 -0.053999998 0.00092838291
-0.07470376 -0.054000005 0.00050240802
-0.056275465 -0.03698352 -0.0013566514
-0.072303787 -0.053999998 0.00014931697
-0.071387552 -0.053999998 0.0004551837
-0.025808189 -0.033283226 -0.001247054
-0.055458672 -0.051293921 -0.0020840112
-0.068029732 -0.053999998 0.00073623966
-0.067562252 -0.053999998 0.00010568532
-0.066626184 -0.053999998 0.00060821767
-0.049188018 -0.035947233 -0.00095509778
-0.064298637 -0.054000001 0.00041075022
-0.063401252 -0.053999998 0.00054212078
-0.062146645 -0.050970547 -0.00018449521
-0.060528703 -0.054000005 0.00068001699
-0.058829147 -0.053999998 4.3169654e-05
-0.05639869 -0.053999998 0.00067837461
-0.055059992 -0.054000005 0.0006571603
-0.054427721 -0.053999998 0.00039300835
-0.053630896 -0.053999998 0.00061571208
-0.052778482 -0.054000001 0.00068117341
-0.051061869 -0.053999998 0.00081342785
-0.013703335 -0.033137795 -0.0014499805
-0.049607854 -0.054000005 0.00039525522
0.084348246 0.054000001 -0.0046115932
-0.047864422 -0.054000005 0.0004863285
0.071564481 0.028533624 -0.0049999999
-0.023607951 -0.042778417 -0.00091004698
-0.057973605 -0.037559114 4.8660831e-06
-0.041571975 -0.054000005 0.0005450825
-0.040758491 -0.054000001 0.00092491868
-0.055417679 -0.037746467 -0.0011632296
-0.038304433 -0.054000001 0.00042158543
-0.037008684 -0.054000005 0.00025051949
-0.036376685 -0.054000001 0.00029560068
-0.034357391 -0.054000001 0.00011141901
-0.033711541 -0.054000005 0.00042608153
0.00034536174 -0.029518127 -0.0013608192
-0.020844996 -0.017975681 -0.0031556645
-0.030858314 -0.054000001 3.8314029e-05
-0.038939979 -0.042587053 -0.0015365318
-0.028728887 -0.054000005 0.00082688814
-0.027283864 -0.054000001 0.00026493566
-0.0097998995 -0.026367029 -0.0049999999
-0.031850673 -0.049801346 -0.0011780295
-0.024600126 -0.054000001 0.00051467068
-0.023717552 -0.053999998 0.00031890039
-0.0013824664 -0.025424231 -0.0014143185
-0.021184675 -0.054000005 0.00069619738
-0.019001566 -0.054000001 0.0004561767
-0.018894054 -0.054000001 0.00083919289
-0.017497953 -0.053999998 0.00016344117
-0.0016796559 -0.032781482 -0.0015223287
-0.0023723245 0.029966425 -0.0049999999
-0.014314331 -0.054000005 0.00021499768
-0.013491243 -0.053999998 0.00068548589
-0.039077282 -0.01405282 -0.0020206156
-0.011304982 -0.054000001 0.00036820723
-0.010490204 -0.054000001 0.00046009678
-0.0096388422 -0.054000005 0.00075996341
0.012872621 -0.047143057 -0.0013680746
-0.033892889 3.7252903e-09 -0.0010446451
-0.0068051419 -0.054000001 0.00063712685
-0.0050039664 -0.054000001 0.00012413622
-0.0042653806 -0.054000005 0.00076303491
0.032660909 0.018114464 -0.0049999999
-0.0016856883 -0.054000001 0.00038193446
-0.00021819647 -0.054000001 0.00065988908
0.0003252551 -0.054000001 0.00034057396
-0.0029793256 -0.046284061 -0.00095464685
0.017278008 -0.018938657 -0.0014770505
0.042115282 -0.043818589 -0.0023517001
0.006838236 -0.054000001 0.00079898397
0.036698133 -0.032759551 -0.0021536543
0.0080751609 -0.053999998 0.00037605222
0.0094005065 -0.054000001 0.00070567912
0.010337392 -0.054000005 0.00068962574
0.034922414 -0.041773833 -0.0023066655
0.01295541 -0.053999998 0.00096883066
0.013476813 -0.054000001 0.00024043272
0.049419001 -0.038665302 -0.0023261418
0.01527682 -0.054000005 0.00085362932
0.016067101 -0.053999998 2.6254449e-05
-0.082863256 0.018154895 -0.0049999999
0.019084273 -0.053999998 0.00094249891
0.020684902 -0.053999998 0.00040299306
0.021235762 -0.054000001 0.00020378595
0.022757584 -0.054000009 0.00045005744
0.02335242 -0.053999998 0.00027990458
0.029878415 -0.024811875 -0.0010820188
0.025470948 -0.054000001 0.00022602128
0.027350053 -0.054000001 0.00048956077
0.028652713 -0.054000005 0.00074480078
0.042121429 -0.0091055855 -0.0049999999
0.030417807 -0.054000001 0.00047407101
0.010039832 -0.039931595 -0.0011261718
0.032452039 -0.054000001 0.00077455724
0.067191914 0.027507691 -0.0049999999
0.034449659 -0.054000001 0.00045765861
0.028442895 -0.028363079 -0.0022051537
0.037741091 -0.054000001 0.00058553508
0.018543348 -0.035180628 -0.0014388573
0.019075252 -0.049035743 -0.00074785738
0.040937915 -0.053999998 0.00089342659
0.042720232 -0.054000001 4.7296286e-05
0.023747569 -0.050858848 -0.0012009795
0.044693317 -0.054000001 0.00069948612
0.00032375753 -0.0033901371 -0.0024874012
0.047162075 -0.054000001 0.00031133834
0.048239745 -0.053999998 0.00054075941
0.049568191 -0.054000005 0.00021092454
0.050352357 -0.054000001 0.00091154082
0.052500583 -0.054000001 0.00053901848
-0.077665105 0.0064658849 -0.0049999999
0.055370033 -0.054000001 0.00067679799
0.036233567 -0.043458261 -0.0022235597
0.057501003 -0.054000001 0.00044328091
0.024172949 -0.014906222 -0.0022014107
0.059467711 -0.054000001 0.00086792093
0.061966132 -0.040258195 -0.00053212198
0.040928975 -0.011763688 -0.0022194274
0.056815464 -0.033892576 -0.002128636
0.063639201 -0.054000005 0.00089903641
0.035739928 -0.051750846 -0.00051581161
0.065382503 -0.054000005 0.00057948101
0.043016709 -0.054000001 -0.00017727716
0.06753847 -0.054000005 0.00080744922
-0.015650246 0.032341681 -0.0049999999
0.069382422 -0.054000001 0.00042649475
0.02066724 -0.046871811 -0.0022589113
0.071472339 -0.054000001 0.00032476298
-0.064762384 -0.0034636657 -0.0049999999
0.057411589 -0.031803023 -0.001522896
0.074351653 -0.053999998 0.00076707371
0.075296387 -0.054000001 0.00071291742
-0.068394497 0.052766591 -0.0049999999
0.06302318 -0.023529314 -0.0021265761
0.07841716 -0.053999998 0.00022798229
0.078197733 -0.051375043 -0.00087480544
0.043023195 -0.038890958 -0.00064338034
0.070258081 -0.026474223 -0.0014348431
0.043610021 -0.050490789 -0.0011608424
-0.059343949 0.0012942252 -0.0049999999
0.085281111 -0.053999998 0.00071240915
0.033532254 -0.030438565 -0.0049999999
0.065207258 -0.050148286 -0.00062838866
0.089000002 -0.052489486 0.00043647271
0.014324197 -0.036370281 -0.0049999999
0.089000002 -0.051446956 0.00074689207
0.089000002 -0.050497182 0.00055979041
-0.04752849 -0.0076954938 -0.0022431202
0.061424308 0.010550372 -0.0019753152
-0.012146764 -0.0031254534 -0.0020253945
0.077410437 -0.033236854 -0.00062332948
-0.089000002 -0.047285035 0.00027831216
0.089000002 -0.047453314 0.00033862656
-0.089000009 -0.046664491 0.00072721357
0.0048906058 -0.0020227991 -0.0022205955
-0.089000002 -0.045631908 0.00099092862
0.089000002 -0.045688093 0.00067912648
-0.069282927 -0.026177004 -0.00076515594
0.048698679 -0.03550547 -0.0008245362
-0.089000002 -0.043730371 0.00031136116
-0.089000009 -0.042419862 0.00055742986
0.089000002 -0.042890243 0.0007774611
-0.089000002 -0.041815415 0.00033465005
0.010726945 -0.0065884148 -0.0036592244
-0.089000002 -0.040043909 0.00053667556
0.046880662 -0.028033797 -0.0023102502
-0.077769838 -0.036169492 -0.00048672076
0.089000002 -0.039176293 0.00048192963
-0.089000002 -0.03807953 0.00093379733
0.064821675 -0.020623971 -0.0019895972
-0.089000002 -0.03727518 0.00030957838
0.013139807 -0.010386377 -0.0032874371
-0.089000002 -0.036714461 0.00094413967
0.062455446 -0.022038018 -0.001625019
-0.089000002 -0.035921309 0.00022501824
0.041220777 -0.039575264 -0.0023588608
-0.089000002 -0.034410402 0.00039188378
0.069551945 -0.019330554 -0.00068399217
-0.089000002 -0.033657998 0.0005646568
0.089000009 -0.033313166 0.0003082476
-0.089000002 -0.032689612 0.00041414468
-0.045740694 0.016782198 -0.0049999999
-0.013954276 0.0026633628 -0.0022847501
-0.0042907316 -0.027759437 -0.0049999999
0.089000009 -0.030615639 0.0007079927
0.089000002 -0.029424444 0.00079982122
-0.080830261 -0.014550596 -0.0013325932
0.078542665 0.0064741736 -0.0049999999
-0.085808411 -0.033266276 -0.0012271651
0.089000002 -0.025217194 0.00013851607
-0.046252809 -0.023587644 -0.0011493145
0.089000002 -0.024585288 0.000917539
-0.089000002 -0.023644747 0.00044795731
0.089000009 -0.023477424 0.00059601944
-0.048395291 -0.029785857 -0.00097169273
0.089000002 -0.022005577 0.00043660169
-0.009225185 -0.034590788 -0.0031110519
0.089000002 -0.021652207 0.00033376925
-0.052630018 -0.015924767 -0.0023929107
0.089000002 -0.020483606 0.00053662737
-0.089000009 -0.019558085 0.00058745628
0.089000002 -0.0194035 0.00026046447
-0.089000002 -0.0187851 8.0601079e-05
0.059371676 -0.019390408 -0.0014559354
-0.068904579 0.0083672795 -0.0022186609
0.089000002 -0.017786596 0.00087532168
-0.089000002 -0.016775733 0.00062820199
0.089000002 -0.016792638 7.5823395e-05
-0.089000002 -0.015412583 0.00065439916
0.089000009 -0.015795421 0.00047524384
-0.089000009 -0.014337304 0.00028544851
0.065685645 -0.031866666 -0.0021524918
-0.089000002 -0.013609735 0.0008478486
0.089000009 -0.013471788 0.00055245811
-0.06019986 0.0041444623 -0.00015886268
0.089000002 -0.012455832 0.00033688825
-0.032402325 -0.023733795 -0.0011116852
0.038287118 0.0017608572 -0.0015049165
-0.089000002 -0.0099453013 0.00089613651
0.043696418 -0.023023188 -0.0013150758
-0.064325593 -0.0058205081 -0.00066207466
0.04821761 0.004166848 -0.0014363788
-0.032591201 -0.0076388791 -0.0012414379
0.089000002 -0.0074196961 2.6227441e-05
-0.089000009 -0.0063281525 0.00023016613
0.089000002 -0.0067087766 0.0007268535
-0.089000002 -0.0053974306 5.1493756e-05
0.089000009 -0.00543998 0.00044469925
-0.086450629 -0.00095166103 -0.00070399343
-0.027964063 0.0017795786 -0.0031005121
0.089000009 -0.003385067 0.00046765278
-0.089000002 -0.0029772259 0.0008085944
0.0056932233 -0.0028564159 -0.0049999999
-0.089000002 -0.0018062759 0.00038630131
0.089000002 -0.0016047079 0.00048054615
-0.078919299 -0.0057954732 -0.0010138554
0.089000002 -0.00095666386 0.00093701854
-0.089000002 0.00051039271 0.00090395869
0.089000002 0.0002717562 0.00087456463
-0.089000002 0.0014736471 0.00064229232
0.089000002 0.0015714816 0.00024190231
-0.079239637 -0.00303095 -0.00014835712
-0.089000009 0.00313963 0.00038236263
0.089000002 0.0037122658 0.00042196841
-0.089000009 0.0046195742 0.00061698095
0.089000002 0.0048625693 0.00039228739
-0.089000002 0.0055849189 0.00072589971
0.089000002 0.0052323863 0.00039290718
-0.089000002 0.0061689839 0.00043037918
-0.089000002 0.0076765586 0.00068447157
0.089000009 0.0076768971 0.00060843112
-0.089000002 0.0086897071 0.00051380147
0.056612741 -0.0028725066 -0.00093964231
-0.089000002 0.0095451334 0.00064034289
0.089000002 0.009238719 0.0006492862
-0.089000009 0.01053978 0.00055698946
0.03952574 -0.00022387008 -0.0011391256
-0.089000002 0.011297957 0.00069449109
0.084900126 0.0058363965 -0.0013351509
-0.077714659 0.011154825 -0.0021370063
0.022888117 -0.012081105 -0.0024402752
-0.013227306 0.011762477 -0.0022274177
0.076759703 0.019322671 -0.002384109
-0.043982178 -0.014205756 -0.0032277878
0.089000002 0.014327104 0.00059437932
-0.053778511 0.0034276908 -0.00087419478
0.018965513 0.0049392823 -0.0022962545
-0.064345628 0.0026081684 -0.0006669978
0.07851854 0.019898217 -0.0010401944
-0.066748008 0.007598754 -0.0023038397
0.089000009 0.017420944 0.00024860245
-0.089000009 0.018543532 0.00039760908
0.089000002 0.01875297 0.00064877362
-0.089000002 0.019599784 0.00034650468
-0.089000002 0.020464042 0.00030214875
0.089000002 0.020790504 0.00013191742
-0.079121202 0.00647667 -0.0014924107
0.089000002 0.021425962 0.00055443705
-0.051489957 0.017081568 -0.0014401299
0.089000002 0.022556368 0.00020788953
-0.016844912 -0.0093868151 -0.0020409499
0.089000002 0.023299843 0.00054022734
-0.042543814 0.0030504782 -0.0049999999
0.059110906 0.032543432 -0.0008971311
-0.01678432 -0.011087742 -0.0024434105
0.089000002 0.026392348 0.00029446674
-0.089000002 0.027566031 0.0008052038
0.089000002 0.036477499 6.9490343e-05
-0.089000002 0.028547883 0.00053142384
0.089000002 0.02817069 0.00079591875
0.089000002 0.029157344 0.00063525455
-0.036205586 0.020354029 -0.0032923375
0.032266043 0.0094119366 -0.0021147756
0.089000009 0.031656962 0.00064399221
-0.062755816 0.026946653 -0.00065374415
-0.089000002 0.033159595 0.00065325125
0.089000002 0.033882126 0.00021738789
-0.089000002 0.034676895 0.00065460056
0.089000002 0.03458776 0.00017112604
0.0047987904 0.023864776 -0.0049999999
-0.065342359 0.023181818 -0.00064374664
0.089000009 0.036424555 0.00024147161
-0.089000002 0.037741624 0.00029252778
0.089000002 0.037552848 0.00043213088
-0.089000002 0.041154556 -0.00064754992
0.059315152 0.027396418 -0.0016088857
-0.089000002 0.039366439 0.00046739751
0.089000002 0.039475664 0.00056430534
0.036799487 0.018660858 -0.0031132575
-0.089000002 0.041654699 0.00043056806
0.085313648 0.038241494 -0.00093500357
-0.089000002 0.042005718 0.00074573385
0.089000002 0.042460024 0.00078378629
-0.089000002 0.043717492 0.00024902815
-0.089000009 0.044371627 0.00069467095
0.089000002 0.044358172 0.00059426378
-0.043325402 0.0059050489 -0.0020885004
0.075144328 0.034324437 -0.0010504442
-0.089000002 0.046569731 0.00014434196
0.089000002 0.046881404 0.00048819889
-0.074815854 0.036802106 -0.00071158912
0.089000009 0.047663689 0.00038620475
-0.081340671 0.028400112 -0.0022596782
0.089000002 0.048644897 7.0714101e-05
-0.067174062 0.035395041 -0.00071436912
-0.055496477 0.03079067 -0.0013983129
0.089000002 0.050570559 0.0002599085
-0.00472169 0.016564583 -0.002156629
0.082169145 0.020467717 -0.0023440868
-0.00062437111 0.028280102 -0.0030592806
0.089000002 0.052783877 0.00076598825
-0.089000002 0.053009458 0.00074166525
-0.080327839 0.053999998 0.00029695893
-0.068123862 0.053999998 0.00039453828
-0.065484375 0.053999998 0.00022583827
-0.064514339 0.053999998 5.8344856e-05
-0.061613187 0.053999998 0.00024849497
-0.057431586 0.053999998 0.00042656358
-0.056276426 0.053999998 9.9270546e-05
-0.055026781 0.053999998 0.00044985453
-0.052787438 0.053999998 8.4526604e-05
-0.033133157 -0.046453077 -0.0049999999
-0.042487781 0.053999998 0.00066173309
-0.040563993 0.053999998 0.00054556323
-0.019153256 0.027933773 -0.00083325454
-0.032257974 0.053999998 0.00070012966
-0.031622428 0.054000001 0.00056276063
-0.030642677 0.053999998 0.00027618749
-0.02858931 0.053999998 0.00073015888
-0.027935244 0.053999998 0.00011631835
-0.026254848 0.053999998 0.00098178745
-0.023307815 0.053999998 0.00030392897
-0.0035876054 -0.030180655 -0.0049999999
-0.021841016 0.053999998 0.00039428798
-0.019435115 0.053999998 0.0005746407
-0.01706405 0.053999998 0.00011130469
-0.014856033 0.053999998 0.00027360709
0.026609041 0.024819579 -0.0021800466
-0.012825664 0.053999998 0.00016156887
-0.010487139 0.053999998 0.00019641756
-0.0094341934 0.053999998 0.00046938995
-0.0072268322 0.053999998 0.0004755198
-0.0056571513 0.053999998 0.00076962123
-0.0041065812 0.053999998 0.00049403461
-0.0018924698 0.053999998 0.00040104683
-0.00031102449 0.053999998 0.00082916929
0.00036961958 0.053999998 0.00055262726
0.0041512474 0.053999998 0.00063793897
-0.072493695 0.016394578 -0.0049999999
0.0087920949 0.053999998 0.00058422983
0.0090340041 0.053999998 0.00091568858
0.010048084 0.053999998 0.00079823262
0.01144495 0.053999998 0.00035453623
-0.039624307 0.0011349542 -0.0049999999
0.013844345 0.053999998 0.00024504401
0.015448323 0.053999998 0.00051353651
0.042129822 -0.042585015 -0.0049999999
-0.028037474 0.050363157 -0.0024020309
0.025002794 0.053999998 0.00075231097
0.028460104 0.053999998 0.00041062757
0.029629434 0.053999998 0.00083921803
-0.029374033 0.052640684 -0.00058179599
0.031163074 0.053999998 0.00093541201
0.034409031 0.053999998 0.00092901476
0.035933699 0.053999998 0.00032501342
0.036426481 0.053999998 0.00072001875
0.037394937 0.053999998 0.00050442223
0.038649552 0.053999998 0.00052011793
0.055428281 0.053210244 -0.0049999999
0.04050665 0.053999998 0.00041092653
0.041587677 0.053999998 0.00099892612
0.044364706 0.053999998 0.00065964868
0.051449388 0.053999998 0.00015962031
0.054067306 0.053999998 0.00050677662
0.055948652 0.053999998 0.00056873495
0.056779604 0.053999998 0.00028867135
0.057030134 0.053999998 0.0005360127
0.06642364 0.041494541 -0.0023557751
0.060655929 0.053999998 0.0008639528
0.064179912 0.053999998 0.00086803455
0.071061425 0.053999998 0.00040293112
0.075563721 0.053999998 0.00061527756
-0.050948221 -0.021385955 -0.0049999999
-0.034410108 0.039400756 -0.0049999999
0.082092434 0.053999998 0.00040860078
0.0096758716 0.044563681 -0.0022702143
0.084025003 0.053999998 0.00013494026
0.085407153 0.053999998 0.00067243935
0.070712633 0.05379764 -0.0011566146
-0.088432185 0.054000001 0.00010776435
-0.054228313 0.029677091 -0.0021592397
-0.086463362 0.054000001 0.00052558078
0.062434979 -0.001921501 -0.0049999999
-0.084489942 0.054000001 0.00040141176
-0.083315663 0.054000001 0.00063714007
-0.0042818896 0.021771738 -0.0022851494
-0.05337375 0.054000001 0.0003531859
-0.078490049 0.054000001 0.00051107223
-0.076233327 0.054000001 0.00019346856
-0.033838335 0.0023241509 -0.0023465669
-0.073287599 0.054000005 0.00067211781
-0.072079673 0.054000001 0.00053362991
-0.070305482 0.054000001 0.00014745406
-0.06967362 0.054000001 0.00028852161
-0.026113356 0.049511489 -0.0012164328
-0.047517188 0.01756965 -0.0049999999
-0.066597939 0.054000005 0.00029162664
-0.065286964 0.054000001 0.00036398228
-0.064948171 0.054000005 0.00073799852
-0.06325987 0.054000001 0.00070979953
-0.061701301 0.054000005 0.00069366145
-0.039232329 0.039463766 -9.175553e-05
-0.059696175 0.054000001 0.00056028838
-0.058443338 0.054000001 0.00050751457
-0.045521572 0.031821754 -0.0015127015
-0.020606605 -0.018446259 -0.0049999999
-0.054868892 0.054000001 0.00091428641
-0.052076995 0.054000001 0.00045676966
-0.050672922 0.054000001 0.0005616048
-0.012428092 0.049816042 -0.00045748445
-0.048195645 0.054000005 0.00013610034
-0.036270153 0.013038646 -0.0021491165
-0.042587023 0.044959269 -0.0021415525
-0.04474178 0.054000005 0.00043256755
-0.0055321138 0.048107378 -0.0024541796
-0.042732045 0.054000005 0.00012256391
0.073645823 9.5888972e-05 -0.0049999999
-0.03935317 0.054000005 0.0004798302
-0.038337227 0.054000005 0.0003695669
-0.031118155 0.038246837 -0.0005625998
-0.036624029 0.054000005 0.00057609449
-0.035120618 0.054000005 0.00070876977
0.079882294 0.0044375183 -0.0049999999
-0.033576898 0.054000005 2.5020097e-05
-0.032297254 0.054000005 0.00074335723
-0.030218065 0.054000001 0.00069380458
-0.029264437 0.054000001 0.00011087139
-0.028429301 0.054000001 0.00084136002
-0.026564721 0.040482871 -0.0014332409
-0.026604829 0.054000005 0.00076026772
-0.025457408 0.054000001 0.00068396167
-0.013749832 0.042194836 -0.0022739125
-0.023863278 0.054000005 0.00053445512
-0.0015461495 0.024507575 -0.0015107593
0.012824923 0.051729873 -0.0023449128
-0.058652502 0.008559905 -0.0049999999
-0.015786573 0.054000001 0.0004684712
-0.014607977 0.054000001 0.00071431766
-0.013606243 0.054000001 0.00071847939
-0.024288785 0.043208897 -0.0013133574
-0.011617716 0.054000001 0.00090463797
0.0054010181 -0.031508453 -0.0049999999
-0.0096549764 0.054000005 0.0001750621
-0.08863195 -0.042412419 -0.0048577897
0.074247472 -0.052625053 -0.0049999999
-0.00063402532 0.011378641 -0.002259677
-0.0052332841 0.054000005 0.00010312721
-0.0043504685 0.054000005 0.00094945892
-0.0039802417 0.054000001 0.00069989404
-0.0027222373 0.054000001 0.00056122587
-0.0019350499 0.054000001 0.00083500973
0.022626381 0.010674313 -0.0034986269
0.00011957064 0.054000001 0.00032514008
0.0021388456 0.054000001 0.00057271053
0.00077058794 0.04168899 -0.00090195506
0.0056699142 0.054000005 0.00027471175
-0.0062638009 0.0085820742 -0.0020597579
0.0079214051 0.054000001 0.00048882118
-0.036000799 0.023334516 -0.0021743006
0.012417065 0.054000005 0.00046032271
0.013167441 0.054000001 0.00057679601
0.014951169 0.054000001 0.00097100181
0.015358838 0.054000005 0.00024130975
0.016895264 0.054000001 0.00055270572
0.0090702381 0.016244173 -0.0018673381
0.02074101 0.054000001 0.00011985539
0.03129036 0.032087699 -0.00078635017
0.022731056 0.054000005 0.00057218748
0.023077559 0.054000001 0.00082314038
0.030016121 0.046556544 -0.0014562961
0.0029249005 0.035972755 -0.0024328188
0.026641298 0.054000005 0.00052541366
0.02757065 0.054000001 0.00061458204
-0.0029286956 0.024508789 -0.0024887132
0.029855255 0.054000001 0.00099389325
0.030175168 0.054000005 0.00051162543
0.020138428 0.01371789 -0.0033032268
0.03345339 0.054000001 0.00056718162
0.034518592 0.054000005 0.00074059132
0.035799138 0.054000001 0.00068493793
0.036824979 0.054000005 0.00050623214
0.037293315 0.054000001 0.00017608888
0.04056586 0.054000005 0.00074711523
-0.0074526994 0.0064650415 -0.0049999999
0.042518806 0.054000001 0.00044946605
0.043265089 0.054000001 0.00045742677
0.044589978 0.054000001 0.00046947817
0.073355794 0.014470327 -0.0049999999
0.0066501824 0.02373524 -0.0013018841
0.029893059 0.029802797 -0.0028902257
0.049071882 0.054000005 8.3629042e-05
0.051355436 0.054000001 0.00043659681
0.052754596 0.054000001 0.00022733014
0.053942546 0.054000005 7.6770782e-05
0.054409716 0.054000001 0.00061032455
-0.023621392 0.0067884065 -0.0049999999
0.057679385 0.054000005 0.00021816604
0.018174719 0.043854214 -0.0024590935
0.060800549 0.054000001 0.00044492679
0.033864453 0.0017394302 -0.0049999999
0.062440503 0.054000005 5.4707751e-05
0.063504629 0.054000005 0.0002731604
0.064213499 0.054000005 0.00035504927
0.06582585 0.054000005 0.00083831884
0.038292862 0.030793298 -0.001805814
0.067260228 0.054000001 0.00025456958
-0.033816405 -0.048640061 -0.0049999999
-0.04311819 0.035500769 -0.003485953
0.023965899 0.041312136 -0.001297261
0.072613426 0.054000005 0.00071521185
0.073634945 0.054000001 0.00050309731
0.065899685 0.014795313 -0.0010670385
0.076101348 0.054000001 0.0006134375
-0.021835854 -0.041606765 -0.0049999999
0.079308748 0.054000001 0.00049866468
0.046023384 0.040091462 -0.0007400692
0.081108987 0.032842305 -0.00095364498
0.052483469 0.040594015 -0.0049999999
0.060763516 0.026336294 -0.0021248565
0.084942326 0.054000001 0.00068552862
0.085949138 0.054000001 0.00020820624
0.08668305 0.054000001 0.00079113757
0.0010691285 0.0041756053 -0.0021606982
-0.024430655 -0.020861054 -0.0018983803
-0.087531403 -0.053999998 0.0013338686
-0.086520948 -0.054000005 0.0018951343
-0.085973039 -0.054000001 0.0016816886
-0.0039907098 -0.0014014393 -0.0017421312
-0.058178827 -0.036274612 -0.00065928034
-0.065420605 -0.043875832 -0.00026651361
-0.080417588 -0.054000001 0.0016158868
-0.062374961 -0.044397675 -0.0049999999
-0.078652382 -0.054000005 0.0012230439
-0.054013878 -0.053591207 0.00039858132
-0.076639771 -0.054000001 0.0013065113
0.017217221 -0.022916948 -0.0041871532
-0.055030048 -0.036276244 0.00031424646
-0.073546678 -0.054000001 0.0014277491
-0.072406441 -0.054000001 0.001444294
-0.021817937 -0.022482481 -0.00079715578
-0.020631034 -0.045643367 -0.0018164231
-0.069345064 -0.054000001 0.0015395925
-0.05910188 -0.048137866 -0.00067869236
-0.066878051 -0.054000005 0.0010553233
-0.065642253 -0.054000001 0.0015616576
-0.063882537 -0.054000001 0.0016182072
-0.062330466 -0.054000001 0.0013872017
-0.061537519 -0.054000001 0.0013987226
-0.053829677 -0.054000001 0.00015380824
-0.059353992 -0.054000005 0.0011872675
-0.05790133 -0.054000001 0.0014845203
-0.050724756 -0.047032058 -0.00089354534
-0.05558034 -0.054000001 0.0014401454
-0.0018587215 -0.033307303 -0.00037646113
-0.051190201 -0.053999998 0.0015114987
-0.050834149 -0.054000001 0.0010610054
0.0039843172 0.026912069 -0.0049999999
-0.076684862 -0.0013152824 -0.0049999999
-0.049781647 -0.028840771 -0.00068703498
-0.056521665 -0.018000001 0.0003389511
-0.045616083 -0.054000001 0.0016084963
-0.061543211 -1.8626451e-09 -0.0011988443
-0.02735427 -0.040780794 -0.0001469056
-0.042541362 -0.054000005 0.0014220236
-0.02317269 -0.044634137 0.00023031922
-0.040784623 -0.054000001 0.0014546103
-0.039328799 -0.054000005 0.0014681488
-0.031301949 -0.036581837 0.00023317726
-0.018449314 -0.035482358 -0.0015828449
-0.035137437 -0.054000005 0.0018362579
-0.0076784277 -0.006937895 -0.0017134957
-0.032109231 -0.054000001 0.0019567213
-0.031963579 -0.054000001 0.0016301281
-0.030927869 -0.054000005 0.0013454771
-0.029391764 -0.054000001 0.0016016917
-0.028383661 -0.054000001 0.0011982968
-0.027325097 -0.053999998 0.0012982707
-0.026376814 -0.054000001 0.0013534086
-0.016940961 -0.032980464 -7.1940973e-05
-0.024480062 -0.054000005 0.0019440227
-0.00044192467 -0.047186565 -0.00038119082
-0.0050776987 -0.035496719 -0.00084718241
0.039684135 0.025920661 -0.0049999999
-0.044516817 -0.023654357 -0.0049999999
-0.018885039 -0.054000005 0.0015418977
-0.017304122 -0.054000001 0.0014340482
0.019183505 0.053999998 -0.0031149525
-0.0025208192 -0.024580568 -0.0016683084
-0.014921911 -0.053999998 0.0018742513
-0.0041184579 -0.050385851 -9.6490374e-05
-0.037633203 -0.051332682 -0.0017425388
-0.0013124089 -0.037783384 -0.00069821405
-0.022616666 -0.038360022 -0.00012931068
-0.00918293 -0.053999998 0.0018137043
0.031541832 -0.04043426 -0.0010852263
-0.0071325786 -0.054000005 0.001718341
-0.0035983166 -0.035909675 -0.00069137377
0.0024832259 -0.054000001 0.0011207408
-0.0049742386 -0.054000001 0.001146047
-0.0039356714 -0.054000001 0.0017933429
-0.0023960378 -0.054000005 0.0015548652
0.0029233105 -0.048038818 -7.3408264e-05
-0.00033347806 -0.024416484 -0.00048679783
0.00063848932 -0.054000001 0.0015626238
0.0013915598 -0.054000001 0.0014765891
-0.013245661 -0.016282657 -0.0049999999
0.0034377086 -0.054000001 0.0015894095
0.0044751284 -0.054000001 0.0018180603
-0.017480582 -0.045156699 -0.00096469297
0.0066572549 -0.054000001 0.0015527548
0.0079090884 -0.00063240691 -0.0033728539
0.0088031385 -0.054000001 0.0010142857
0.0091783665 -0.054000001 0.0014770248
0.013050479 1.8626451e-09 0.00044152595
0.031513259 -0.041871838 -0.00075176172
0.012460107 -0.054000001 0.0016643481
0.013564818 -0.054000001 0.0017912751
0.033822108 -0.0083874315 -0.0028881859
0.015318636 -0.053999998 0.001901797
0.016442748 -0.054000001 0.0016859041
0.0053298692 -0.033561714 -0.00052506308
0.019740587 -0.054000001 0.0017400061
-0.021469288 -0.029790504 0.00028636606
0.021903403 -0.054000001 0.0016418316
0.021910092 -0.040330499 -0.00076253421
0.023298107 -0.053999998 0.0014713656
-0.002089167 0.017102081 -0.0049999999
0.025434921 -0.054000001 0.0014690261
0.02607508 -0.054000001 0.0013877344
0.027416851 -0.053999998 0.0013593088
0.02863677 -0.054000005 0.0014563906
0.029619735 -0.054000005 0.0013523584
0.030055651 -0.054000001 0.0016535531
0.031496167 -0.054000001 0.0019343479
0.032814108 -0.051688351 -0.001606897
-0.011617964 -0.0012932321 -0.0049999999
0.034579888 -0.054000005 0.0013598485
0.035201933 -0.054000005 0.0017433041
0.036028352 -0.054000001 0.0015650755
0.037450664 -0.054000001 0.0015183057
0.036735058 -0.045646034 0.00051543047
0.039187767 -0.053999998 0.0018075092
0.04664284 -0.017644377 -0.0016792119
0.042873055 -0.054000005 0.001530637
0.043514717 -0.053999998 0.0016405762
0.045510717 -0.054000005 0.0016212764
0.04644727 -0.054000001 0.0013219235
0.038193762 -0.046632297 -0.00015161469
0.049647234 -0.054000005 0.0016787702
0.050699107 -0.054000001 0.0016870794
