# .PCD v0.7 - Point Cloud Data file format
VERSION 0.7
FIELDS x y z
SIZE 4 4 4
TYPE F F F
COUNT 1 1 1
WIDTH 1221
HEIGHT 1
VIEWPOINT 0 0 0 1 0 0 0
POINTS 1221
DATA ascii
-0.010905704 0.027272014 -0.0042058504
-0.010804732 0.032945439 -0.0035194866
0.010675464 0.032952189 -0.0039355461
0.011514311 0.032697216 -0.0036921485
0.012401784 0.032419696 -0.0035009549
0.013001287 0.03215405 -0.0038869311
-0.010382386 0.033064879 -0.0037459799
-0.0094285971 0.03338144 -0.0036390324
-0.010395102 0.032624085 -0.0033334331
-0.0090279328 0.029037947 -0.0059312177
0.011372296 0.027435463 -0.013317178
0.0075762356 0.033835243 -0.0036082182
0.0039352863 0.030769875 -0.0049985349
0.0060362546 0.014484517 -0.014774008
0.010489791 0.033078607 -0.0031753718
-0.0041752313 0.029442031 -0.0079381615
-0.0054826108 0.03431952 -0.0034396038
-0.0045556715 0.034478214 -0.0034848968
-0.0034075219 0.034584694 -0.0033928654
-0.0057867453 0.02513263 -0.0061031193
0.00053163845 0.025590774 -0.0065063029
-0.0025253149 0.029664256 -0.0058871848
0.00052873301 0.034731507 -0.0034909851
0.0014685923 0.03468829 -0.0034410823
0.0025182995 0.03465094 -0.0032279757
0.0060396865 0.032589186 -0.0048610526
0.004223675 0.034568679 -0.0031150703
0.0067870379 0.030609697 -0.0062638023
0.0076035052 0.028897261 -0.005063328
-0.0027532571 -0.026158171 -0.0099995695
-0.0067090783 -0.034113213 -0.002675293
-0.0027225823 -0.030357827 -0.0050720368
-0.0045126937 -0.034575071 -0.0025076743
-0.0034677393 -0.03466342 -0.0023662297
-0.0040273517 -0.030147349 -0.0050242483
-0.0012031596 -0.03476809 -0.0024810638
0.0034775073 -0.032499678 -0.0030412399
0.0005042305 -0.034798447 -0.0025438562
-0.003155556 -0.026220834 -0.0045720004
0.0050204424 -0.032652494 -0.0052087586
0.0035248122 -0.03464609 -0.0025774718
0.00026993878 -0.027649021 -0.0071641924
0.0054786722 -0.034394078 -0.0025832821
0.0026348792 -0.033409379 -0.0034640664
0.0073089134 -0.034001458 -0.0023598745
-0.0074023716 -0.031730097 -0.0043653497
-0.0096514281 -0.03342649 -0.0023361002
-0.0085523333 -0.033711419 -0.0024025
-0.0094477423 -0.025054127 -0.0052513294
0.0085569583 -0.033275384 -0.0039984882
0.0084653534 -0.03372401 -0.0024913568
0.0098503809 -0.033360474 -0.0023428586
0.010307935 -0.033203378 -0.0024197118
-0.013366374 -0.032171346 -0.0026238388
-0.012165572 -0.022372305 -0.004813822
-0.011436923 -0.032823369 -0.0025207379
0.011378722 -0.032832321 -0.0026392699
0.012573435 -0.032457795 -0.0024157553
0.012927975 4.4293702e-06 -0.0043092147
-0.01570056 -0.031058285 -0.0023038951
-0.014347642 -0.031771462 -0.0025628835
-0.017495163 -0.029009124 -0.0029613003
0.01387453 -0.031996585 -0.002169597
0.014422438 -0.031731095 -0.0025521792
0.012607918 -0.031547718 -0.0037463997
-0.017328888 -0.030161349 -0.0022702427
-0.016396169 -0.030674329 -0.0022983435
-0.015883449 -0.030935314 -0.0025472757
-0.019100023 -0.0025514448 -0.029065948
0.012315192 -0.019969106 -0.0067995717
0.017434042 -0.030063173 -0.0027155753
-0.01863949 -0.029382668 -0.0024257463
-0.011404212 -0.021695148 -0.0058361599
0.001906996 -0.020508181 -0.0076530064
0.018533088 -0.029452452 -0.0024139602
0.020947343 -0.026327748 -0.0047457274
-0.020317575 -0.02826025 -0.0025296153
-0.019654199 -0.02869886 -0.0025526367
0.0193756 -0.028885027 -0.0025415833
0.020327436 -0.028253384 -0.0025329194
-0.022036333 -0.027023241 -0.0024988409
-0.020855535 -0.024868445 -0.0032845321
-0.020770455 -0.027936045 -0.0027757501
0.007627693 -0.018119475 -0.003983587
0.015346127 -0.02532679 -0.0044431654
-0.014683238 -0.017190913 -0.0069065453
0.016175404 -0.02464281 -0.004191014
0.023070607 -0.026057262 -0.0024625938
-0.01735072 -0.010732003 -0.012695612
-0.023674672 -0.025468593 -0.0026062685
0.023536613 -0.02561114 -0.0025015497
-0.021270767 -0.014513306 -0.023600116
-0.025054917 -0.024111765 -0.0026931958
-0.024673026 -0.024521757 -0.0025452708
0.024593562 -0.024554994 -0.0029395716
0.0251386 -0.02409463 -0.0020813085
-0.026016278 -0.023070585 -0.0027921214
-0.023235949 -0.024522025 -0.003151736
0.025759175 -0.023376912 -0.0025303261
-0.027031481 -0.022026764 -0.0024265754
-0.026708702 -0.022235794 -0.0029374508
0.026905132 -0.021216553 -0.0043126573
-0.027444301 -0.021509973 -0.0025211808
0.027391968 -0.0215733 -0.0026273935
-0.028354971 -0.020205377 -0.0024121548
0.016035317 -0.016336959 -0.0089558
0.028192064 -0.020456672 -0.0023935097
-0.029142685 -0.019045427 -0.0021315857
-0.021785561 -0.01270721 -0.0030070795
0.024672175 -0.020676116 -0.0041248752
-0.021543352 -0.012248576 -0.0061852448
0.018657409 -0.018607061 -0.0067470414
-0.030132234 -0.017446971 -0.0025118364
-0.029984996 -0.017697666 -0.0025534828
0.029905997 -0.01780523 -0.0026405603
0.030104719 -0.017499292 -0.0025011599
-0.027118713 -0.01305024 -0.0085563641
0.026399417 -0.014332775 -0.0032718701
-0.031240884 -0.015322531 -0.0023951167
-0.030948192 -0.015877215 -0.0026476514
0.031167099 -0.015425185 -0.0026666885
-0.031686924 -0.014324384 -0.0026639595
0.024062879 -0.016217468 -0.0026543038
-0.032187942 -0.013308542 -0.0022832816
-0.031925488 -0.013887976 -0.0023000936
0.031929187 -0.013862312 -0.0023921938
0.032119159 -0.013415008 -0.0026187226
-0.032493558 -0.012460134 -0.0024554615
0.032506444 -0.012431827 -0.0024050535
-0.032801747 -0.011571197 -0.0026848996
0.032882381 -0.011390984 -0.0023710423
0.033025756 -0.011015285 -0.0022403952
-0.027168293 -0.0011470465 -0.0069603133
0.00038200949 0.034268409 -0.0066199438
-0.019640235 -0.00044811284 -0.0031383582
0.033553045 -0.0091611762 -0.0026840626
-0.031562638 -0.01038404 -0.0056584114
0.033780504 -0.0083842874 -0.002599559
-0.0077810921 0.0065932381 -0.011742508
-0.033957332 -0.007602246 -0.0024397953
0.033969887 -0.0075259744 -0.0025089327
0.020040439 -0.0073129307 -0.012677548
-0.034216963 -0.0062931296 -0.0025498103
0.03418437 -0.006484942 -0.0024727448
-0.034338951 -0.0055832467 -0.0024535756
0.023095429 0.00070353597 -0.0071945479
-0.03449972 -0.004558383 -0.0024254937
0.034503702 -0.0044142441 -0.002639927
-0.034644917 -0.0034135475 -0.0023636837
0.026439594 -0.00047281888 -0.0049237492
-0.034696955 -0.002596359 -0.0024742517
0.034705516 -0.0024225912 -0.0025446638
-0.028211279 -0.011094808 -0.0064428858
0.034750041 -0.0016885555 -0.0025875296
-0.034443114 0.00025807921 -0.0035587803
0.034746692 -0.00045062846 -0.0027370232
-0.027763028 -0.0042723473 -0.0052887471
0.034775712 0.00044837972 -0.0024234727
-0.030201664 0.0066684941 -0.0051227496
0.031965852 0.0034718364 -0.0054116971
-0.034709118 0.0026399409 -0.002168441
0.024636894 0.004346279 -0.0071657095
-0.034638938 0.003424882 -0.00248054
0.034643624 0.0033219527 -0.0025343357
-0.034540385 0.0042845244 -0.0024448722
0.025719609 0.0066194152 -0.004246478
-0.028859895 0.00018500848 -0.0040795486
0.03438177 0.0053237318 -0.0024217754
-0.025543349 0.0063159126 -0.0051119542
0.034194522 0.0064437329 -0.002451482
-0.034052677 0.0071509257 -0.0024332227
-0.029824365 0.0035995902 -0.0079753166
0.033918086 0.0077717202 -0.0025101993
0.034018315 0.0073435903 -0.0023109433
-0.033773582 0.0084398557 -0.0024617845
0.029505044 0.0073714573 -0.0063961311
-0.033499945 0.0092776101 -0.0028818666
0.027496614 0.0044003092 -0.0068156058
-0.033165708 0.010462724 -0.0025688035
0.033171292 0.010463344 -0.0025036861
-0.032831285 0.011509442 -0.0025243023
0.032908943 0.011224572 -0.0028073208
-0.024575328 0.0088219233 -0.0074959756
0.022052201 0.0057166121 -0.010774217
-0.028037388 0.014284926 -0.0067488323
-0.031965982 0.013726011 -0.0026930268
0.020505277 0.0052268002 -0.0079509681
-0.027337743 0.014272873 -0.0039162375
0.031620543 0.01448804 -0.0025467789
-0.017494407 0.0119157 -0.011891069
0.031879816 0.013715251 -0.0036954447
0.030920494 0.015887676 -0.0029985891
0.031207016 0.015326771 -0.0027518389
-0.023473758 0.016975882 -0.0034748791
0.030668315 0.01645973 -0.0022197629
-0.03020706 0.017333621 -0.0022202111
-0.02992411 0.017782435 -0.0026080422
0.029906768 0.017821936 -0.0025203684
0.027116284 0.018701589 -0.0051363567
-0.021529252 0.016050402 -0.0032030977
0.028889738 0.016315714 -0.0051758909
-0.028895792 0.019407406 -0.0022301758
0.028819209 0.019472387 -0.0025786585
0.029075351 0.019100521 -0.0024516936
-0.028278355 0.020270549 -0.0027596965
-0.027906971 0.020854745 -0.0025525473
0.027907845 0.020894138 -0.0023265835
0.028388632 0.016599352 -0.0055298079
-0.027582519 0.021338366 -0.0024318721
0.026500311 0.017632004 -0.0066968924
-0.027041318 0.022019489 -0.0022220984
-0.026470287 0.022621773 -0.0024767213
0.027105954 0.019736145 -0.0027265032
-0.026053231 0.023038523 -0.0027287318
-0.025560908 0.023587752 -0.0025427598
0.02074879 0.022307085 -0.0032837081
0.026037831 0.0230588 -0.0026967882
-0.025212165 0.024002204 -0.0021965289
-0.018855153 0.02317588 -0.0071646026
0.024599103 0.024591399 -0.0026135948
0.025072239 0.024071695 -0.0028749167
-0.024140012 0.025029887 -0.002584347
-0.023384687 0.025751188 -0.0025372736
0.012942259 0.019130789 -0.0058760438
0.024236605 0.025002269 -0.0020101513
-0.02306165 0.026081692 -0.0023195047
-0.022554277 0.026544979 -0.0024588408
0.01219548 0.023284554 -0.0071565569
-0.022015736 0.027029315 -0.00271384
-0.019777857 0.028224761 -0.0026837662
-0.020925295 0.027869513 -0.0023628047
0.020676352 0.027981155 -0.002959921
0.023108084 0.021694718 -0.0070534819
0.022030966 0.027032878 -0.0022889026
-0.0088035762 0.013369132 -0.0080691762
-0.011903641 0.027769303 -0.0054482529
0.015593631 0.023630831 -0.0088051325
0.020336982 0.028275803 -0.0022288142
-0.024660209 -0.0025864092 -0.024526034
-0.018540872 0.029439053 -0.0025252472
-0.017713321 0.029918352 -0.0026095789
0.017900942 0.029825266 -0.0024916315
0.013505483 0.027305275 -0.0032217968
0.019137656 0.029060062 -0.0023625619
-0.01541023 0.024286505 -0.0057901386
-0.010306193 0.020862665 -0.0088211251
-0.015735462 0.030983128 -0.0029250004
0.016573541 0.030555021 -0.0025348943
0.0095740743 0.02499692 -0.0041335612
-0.015360856 0.031231929 -0.0024607982
-0.019352397 0.024226904 -0.0032495977
-0.013957019 0.031965073 -0.0025546593
0.014536847 0.031672202 -0.0025424443
0.0154326 0.031187244 -0.0025166832
-0.013168355 0.032254755 -0.0023585886
-0.01237441 0.032507878 -0.0026038878
-0.010618092 0.021170247 -0.0047121444
-0.010978187 0.032954406 -0.0027514964
0.017540215 0.025362296 -0.006231084
0.012627539 0.032429833 -0.0025432468
0.010572927 0.019375987 -0.0060824896
-0.0024266713 0.018124063 -0.002446027
-0.01215314 0.029343477 -0.0048467419
-0.0085354326 0.033704229 -0.0025347176
-0.0031471776 0.027129134 -0.0052705938
0.0076147057 0.033918753 -0.0025061192
0.0084964586 0.033713888 -0.0025266558
0.0094729755 0.033472184 -0.0024164161
0.0092322836 0.032128494 -0.0027302152
-0.0074770097 0.032715615 -0.0054248972
-0.005295163 0.034454957 -0.002344951
-0.004460982 0.034581907 -0.0025995742
-0.0036495447 0.03464514 -0.0024833013
-0.0025582733 0.034707181 -0.0023888261
0.0030999223 0.031008983 -0.003078213
-0.00087139825 0.025659984 -0.0047180941
0.00048343476 0.034803748 -0.0024823274
-0.00043616054 0.030506084 -0.0051017208
0.0027865283 0.034699351 -0.0023383179
0.0086070932 0.029100774 -0.0034772556
0.0023731228 0.030796377 -0.0052620689
0.0052958089 0.034450166 -0.0024274662
0.0063226777 0.034218762 -0.0024781644
0.0071024653 0.034012251 -0.0027986015
-0.0071757752 -0.034101985 -0.0014904917
-0.014964578 -0.022715779 -0.0053412272
-0.0024117697 -0.023348447 -0.0021276013
-0.0043552448 -0.034596927 -0.0014345889
-0.0034294701 -0.034682609 -0.0013276075
-0.002691892 -0.034749161 -0.0013739209
-0.0015248392 -0.034822565 -0.0014656554
-0.00011356837 -0.029504288 -0.0069385967
-0.0094227139 -0.010189069 -0.012039892
0.006483655 -0.025113853 -0.0037944156
0.0021072065 -0.034783192 -0.0016162569
0.0062112287 -0.026959166 -0.0056166258
0.0069169737 -0.024319543 -0.0033288463
0.0054223449 -0.034432232 -0.0015412457
0.0064560114 -0.034243368 -0.0014286167
0.0072167278 -0.034076206 -0.0017214773
-0.01109859 -0.033021078 -0.0015152316
-0.010582617 -0.033203036 -0.0013727731
-0.011221988 -0.019261103 -0.010957955
-0.0084705623 -0.03380264 -0.0015389337
-0.0078782793 -0.033940803 -0.0015185116
0.0070684655 -0.020830967 -0.012464754
0.0084889 -0.033804733 -0.0014635181
0.009514533 -0.033561874 -0.0012270956
0.010327675 -0.033268124 -0.0015909653
0.011108108 -0.033032723 -0.0013433937
-0.013487412 -0.032144479 -0.0013647431
-0.0053091901 -0.010594179 -0.01046175
-0.011746935 -0.032792639 -0.0016027705
0.01168071 -0.032818485 -0.0015104465
0.020048618 -0.003500374 -0.011449906
0.010141434 -0.024299683 -0.0046633063
-0.01540665 -0.031252205 -0.0012114114
-0.014394404 -0.029815704 -0.0061966614
-0.0094781267 -0.015423766 -0.029818982
0.014674028 -0.031614117 -0.0015666794
0.011636855 -0.023209773 -0.0097260065
-0.017281279 -0.030239165 -0.0016976608
-0.017335275 -0.029963501 -0.0019382299
0.015956221 -0.0309655 -0.0017645169
0.012343933 -0.029431781 -0.0033621897
0.01208869 -0.028805353 -0.0088585401
-0.013045337 -0.020963049 -0.0056811618
0.017902143 -0.029923279 -0.0013945778
0.018497292 -0.029560506 -0.0015147217
0.019193718 -0.029111952 -0.001420095
-0.01622588 -0.021575285 -0.0019089766
-0.018047184 -0.026695784 -0.003166005
0.019480927 -0.02889768 -0.0016678344
0.020443495 -0.028243983 -0.0014871927
-0.022861328 0.025934987 -0.0046885284
-0.021588679 -0.027390277 -0.0014501958
-0.020815697 -0.027972382 -0.001214155
0.020902283 -0.027907815 -0.0016437195
0.020244313 -0.023415087 -0.0072678924
-0.023128327 -0.026095644 -0.0015458327
-0.022523774 -0.026613181 -0.001584498
0.016335532 -0.020001968 -0.0071095172
0.023077291 -0.026144801 -0.0013519588
-0.024157681 -0.025166132 -0.0012107791
-0.012182155 -0.0081605501 -0.0059418636
0.023625989 -0.025626687 -0.0015876698
0.024149399 -0.025163433 -0.0013054694
-0.025209604 -0.024120955 -0.0012170927
-0.017550385 -0.020535562 -0.0060339258
0.020755861 -0.018521167 -0.0029286246
0.025170885 -0.024144327 -0.001369821
-0.02608679 -0.023163315 -0.0012705787
-0.025472362 -0.023808613 -0.0014785758
0.025596887 -0.023661405 -0.001595579
0.026146576 -0.02306943 -0.0015978627
-0.027050268 -0.022008721 -0.0018450106
-0.026578909 -0.022571661 -0.0015896631
0.026607851 -0.022541048 -0.0015482579
0.027049178 -0.022010028 -0.0018105976
-0.027316123 -0.021681195 -0.0013866876
0.020654004 -0.01490699 -0.0065191407
-0.023168426 -0.022388823 -0.0032377974
-0.027910799 -0.0209057 -0.0015267355
0.027919598 -0.020893864 -0.0010581032
0.020472173 -0.016612567 -0.0044242004
-0.028204415 -0.011092461 -0.013034172
-0.02873324 -0.0197534 -0.0015714073
0.028716778 -0.019807234 -0.0011991044
0.029119905 -0.019192267 -0.001378211
-0.029518357 -0.018582057 -0.0013940347
0.027830873 -0.019510869 -0.0018282643
-0.024321893 -0.018833598 -0.0021174706
-0.029931992 -0.017918149 -0.001512069
0.029952113 -0.017924845 -0.0012573737
0.030148493 -0.017527394 -0.0014816182
-0.030674452 -0.016521852 -0.0015362521
0.030162266 -0.016085424 -0.003366279
-0.031315267 -0.015279856 -0.0017242499
-0.030044947 0.015323679 -0.0092529217
0.03113357 -0.015664257 -0.0013971208
-0.031657595 -0.014572183 -0.0017043598
0.031712282 -0.014485459 -0.0015501296
-0.021754405 -0.0087486682 -0.0068835393
-0.031971887 -0.013961131 -0.0014118677
0.031951644 -0.013955863 -0.0016615255
0.032143306 -0.013539795 -0.0015441577
-0.032557826 -0.012408043 -0.0016002603
0.012836799 -0.0031190552 -0.006403069
-0.033045411 -0.011140122 -0.001024931
-0.018823666 -0.0042183753 -0.0057267686
0.032933205 -0.011321915 -0.0019026012
0.033091668 -0.011001429 -0.0010951069
-0.029538626 -0.0067925164 -0.0027548259
0.026026724 -0.0059809997 -0.0060657011
-0.023716457 -0.0076559838 -0.0063946228
0.033462781 -0.0097668711 -0.0016155979
-0.033767324 -0.0086861467 -0.0016797454
0.033820059 -0.008469075 -0.0015059301
-0.023563955 -0.0082541173 -0.013430316
-0.033937216 -0.0079358257 -0.0014510399
0.033971876 -0.0077781267 -0.0014222027
0.029233843 -0.006656406 -0.0047830441
-0.020487392 0.0054854429 -0.0049146186
0.034230284 -0.0065058284 -0.0016082713
-0.034422245 -0.005486147 -0.0016531749
0.031823095 -0.0042328117 -0.005486785
-0.03456996 -0.0046160915 -0.0014598108
0.034651123 -0.0040677828 -0.0013413611
-0.030175358 -0.0073959664 -0.0027527038
0.034665685 -0.0037275497 -0.0015235355
-0.017656302 -0.0046241889 -0.010334778
0.026684709 -0.0019186232 -0.0077931127
-0.032187894 -0.0046569607 -0.0015685692
0.034833334 -0.0015050592 -0.0012530666
-0.033377077 -0.0029766669 -0.0028556508
0.034859221 -0.00039648704 -0.0015211345
-0.031393763 0.0043550562 -0.0025499412
0.034852762 0.00056275894 -0.0015909395
-0.034814447 0.0016908607 -0.001373663
0.033716273 0.0037890566 -0.0033851489
-0.031357128 0.001888081 -0.005761703
0.034752786 0.0024438542 -0.0015631559
-0.022682538 0.0018965455 -0.0066158646
0.034680508 0.0034527951 -0.0016090141
-0.034601983 0.004375075 -0.001494682
0.034598947 0.0043613925 -0.0015666134
-0.034455679 0.0054572257 -0.001293161
0.028251689 0.011973428 -0.0034967139
-0.034227841 0.0065088668 -0.0016440058
0.034215163 0.0065848725 -0.0015783239
-0.029658722 0.011896983 -0.0053210701
-0.033939209 0.0078833876 -0.001629553
0.033949643 0.0078689484 -0.0014836614
0.034120969 0.0070321653 -0.0015789622
-0.033818491 0.0085054915 -0.0014275085
0.022051252 0.0064972723 -0.0082349982
-0.033491649 0.0096646501 -0.0016267187
0.033505589 0.0096311457 -0.0016003306
-0.017333739 0.0088919774 -0.011729552
0.027773144 0.0053748349 -0.0045468584
-0.033084314 0.01101682 -0.0011290458
-0.023976948 0.013384829 -0.0038623712
0.032814495 0.011710336 -0.0015024287
0.033001952 0.011255744 -0.0010585566
-0.032563619 0.012402712 -0.0015274769
0.023142856 0.012023093 -0.0058491523
-0.028759964 0.014297163 -0.0045919027
-0.031999588 0.013826086 -0.001806029
0.032275483 0.013198195 -0.0015542165
-0.031634241 0.014638598 -0.0016173963
0.031732976 0.014459126 -0.0014608899
-0.030805666 0.013551535 -0.0023320799
-0.030950053 0.015955398 -0.0019312403
0.030963 0.015963051 -0.0016323833
0.03132413 0.015320405 -0.0012272734
-0.030727414 0.016428042 -0.0014727991
0.021181179 0.013748643 -0.0048145959
-0.030172959 0.017485833 -0.0014359165
0.029930413 0.017921045 -0.0016118074
0.030145818 0.017517516 -0.0016202495
-0.026697256 0.019449603 -0.0047585624
0.025191709 0.016377412 -0.0035250392
-0.029100712 0.019185659 -0.0016194524
-0.028819131 0.019621219 -0.0015507167
0.028724922 0.019722823 -0.0018621981
0.0078778071 0.023143664 -0.0095113916
-0.028316289 0.020359943 -0.001414331
-0.027917821 0.020896252 -0.0015347551
0.016972722 0.01801498 -0.0079637961
-0.027509041 0.021439388 -0.0014769781
0.027439428 0.02152984 -0.0015206835
-0.02674943 0.022370694 -0.0012550285
0.024365727 0.015470314 -0.0015365359
0.027037602 0.022023961 -0.0017104272
-0.026099093 0.023151763 -0.0012686406
-0.026134608 0.018224481 -0.00429314
0.022238526 0.0093810149 -0.0019234576
0.026213862 0.023015106 -0.0013128587
-0.01303938 0.022107447 -0.0057250261
-0.019652585 0.021954356 -0.0037055369
0.0039861389 -0.0019848943 -0.01303032
0.014305876 0.023758898 -0.0059692217
-0.024112133 0.025165785 -0.0016015327
-0.022504829 0.024370423 -0.0043545044
0.020519344 0.025457667 -0.0039618923
0.024121083 0.025140774 -0.0017498984
-0.022490105 0.026642162 -0.0016736258
0.022599375 0.026549881 -0.0015993553
0.023026599 0.026187826 -0.0015310306
-0.021616066 0.027371503 -0.0016544273
-0.020929394 0.0278876 -0.0016938591
0.020862045 0.027937822 -0.0019768472
0.011790085 0.0078268498 -0.015350095
0.022032326 0.027031723 -0.0011749908
-0.020374557 0.028297743 -0.0014528346
-0.017735979 0.023959279 -0.0077125789
0.019701703 0.028750842 -0.0016186552
0.020436889 0.028251074 -0.001372169
-0.018587228 0.029491059 -0.0016344019
-0.017832566 0.02994377 -0.0015942822
0.018412983 0.029621372 -0.0014169958
0.0070754681 0.021674424 -0.0090642245
-0.017334182 0.030240312 -0.0013598134
-0.012027371 0.019497482 -0.0052806917
-0.015929054 0.030964021 -0.0019478805
0.015976215 0.030970838 -0.0010174487
0.01270967 0.025601491 -0.0053967829
0.017295543 0.030265793 -0.001313945
-0.015533056 0.031186655 -0.0015047612
-0.012352146 0.022208802 -0.0091167958
0.013910232 0.031982947 -0.0018959831
0.014323256 0.024687525 -0.0064844517
0.015486776 0.031211546 -0.0016133338
-0.015763676 0.030486017 -0.0018056048
-0.010310132 0.026883071 -0.0030975377
-0.011394722 0.032916777 -0.0015210543
0.011784491 0.03277573 -0.0016885259
0.010387132 0.028021477 -0.0035364297
0.013380724 0.032185234 -0.0014456132
0.0012901034 0.025950415 -0.01373814
-0.009234488 0.032675125 -0.0040131053
-0.00070119975 0.026805913 -0.0022041393
-0.008487015 0.033808794 -0.0014202227
-0.0079483176 0.033964735 -0.0010404361
-0.0064118952 0.025477834 -0.0074080313
0.0097963354 0.026523741 -0.0048523275
0.010011699 0.017386977 -0.0090154251
0.0032241535 0.026615854 -0.0056606955
0.011141444 0.033025585 -0.0012989194
-0.0072914734 0.034080602 -0.0014635655
-0.0063667595 0.034261167 -0.0015396647
-0.005636571 0.034393948 -0.0015559108
-0.0045491867 0.03457287 -0.0015409312
-0.0035685 0.034669738 -0.0016054305
0.0045455387 0.033247389 -0.0050285831
-0.0014172477 0.034813739 -0.0016698306
-0.00014159826 0.033838984 -0.0058551743
0.0060850945 0.029350257 -0.0050729355
0.0012745199 0.034829315 -0.0015476252
0.0025007247 0.034756988 -0.0015963633
0.0034797869 0.034677953 -0.0015341569
0.0044529475 0.034587882 -0.0013583067
0.001316895 0.023885906 -0.0069134459
0.0081878398 0.026293989 -0.005738826
0.0084967129 0.02089842 -0.0078815818
-0.007511178 -0.034058955 -0.00053807028
-0.0079978909 -0.030958956 -0.0051141893
-0.0054737134 -0.034423053 -0.00049504545
-0.0065290867 -0.028758025 -0.0065434547
-0.0024574609 -0.034772564 -0.00052741606
0.00016015861 -0.034271888 -0.0021565626
-0.0019100304 -0.034391999 -0.0016288355
0.00045255839 -0.03492054 -0.00082121463
0.00032436009 -0.033799909 -0.0013712697
0.0029420294 -0.025665252 -0.0051763798
0.0031557346 -0.032220535 -0.0049257996
0.0044731554 -0.034584243 -0.00033215861
0.0055822232 -0.034403663 -0.00054134894
0.0067863632 -0.034188479 -0.00032125926
0.0030916529 -0.027375292 -0.0015409798
-0.010474931 -0.033288177 -0.00054366305
-0.0095259994 -0.033615097 -0.00059945288
-0.0083752256 -0.033898022 -0.00064846512
0.0078672376 -0.033995323 -0.00010941058
0.008502299 -0.033876937 -0.00039655139
0.0096589085 -0.033568665 -0.00056216976
0.001673825 -0.015454389 -0.0063574901
0.011104628 -0.033054754 -0.00045030186
-0.015831346 -0.027223688 -0.0029358489
-0.012379167 -0.032567851 -0.00057399896
-0.011550851 -0.032884289 -0.00044809154
0.011686808 -0.032832351 -0.00039424538
0.014036554 -0.030314287 -0.0018606412
0.013369975 -0.032189343 -0.00030496196
-0.015531089 -0.031190729 -0.00032794097
-0.0067972369 -0.028532162 -0.0023640504
-0.013936713 -0.031972833 -0.0005618172
0.013944162 -0.031969987 -0.00067440642
0.014551188 -0.031674802 -0.00056158134
0.016232099 -0.028326159 -0.0051893028
-0.017447982 -0.030236358 -0.0004976943
-0.010309624 -0.026402179 -0.0029560868
-0.015938383 -0.030989528 -0.0009656091
0.016539166 -0.030692745 -0.00045827817
0.017229356 -0.030351788 -0.00029987487
-0.019189592 -0.029177126 -0.00074026099
-0.018486511 -0.029686406 -0.00023298329
-0.017977741 -0.029949449 -0.00063909777
0.017985865 -0.029978074 -9.0435649e-05
0.01594393 -0.027474081 -0.0035483656
0.019354822 -0.029061746 -0.00031627883
-0.02025936 -0.028387239 -0.00045694417
-0.015942954 -0.01522038 -0.006345558
0.019865593 -0.028680867 -0.00032265749
0.020444667 -0.028249057 -0.00054543302
-0.020085869 -0.021529473 -0.0047986833
-0.020804606 -0.027980652 -0.00035534077
0.020956628 -0.027867291 -0.00080084475
0.018341178 -0.023870975 -0.0019950778
0.022027265 -0.027036022 -0.00090869243
-0.023038635 -0.026177609 -0.00037802837
-0.022444928 -0.026681526 -0.00056208472
0.022499492 -0.026635213 -0.00037433681
-0.024315378 -0.025093963 -0.00015300931
-0.01938146 -0.026128484 -0.0025068147
0.022170052 -0.024918851 -0.0031911153
0.015880603 -0.0081099318 -0.016467074
-0.02329248 -0.015434431 -0.004427236
0.024741547 -0.024676125 -0.00057156238
0.025116244 -0.024314763 -0.0003513683
-0.026100799 -0.023151148 -0.00087048381
-0.024809713 -0.022208057 -0.0036057879
0.025696132 -0.023634393 -0.00048999209
0.026138842 -0.023105372 -0.0005379077
-0.018992761 -0.018812068 -0.0051139062
0.026679194 -0.022455206 -0.00040200143
0.015486776 0.031211546 -0.0016133338
-0.026742378 -0.017338272 -0.0040508141
0.027489174 -0.021468205 -0.00051426137
-0.027950501 -0.016420912 -0.0049060434
-0.027997628 -0.02078891 -0.00091523753
0.024868419 0.0014647767 -0.0071818852
0.025644783 -0.022248192 -0.0019605444
-0.01800938 -0.0013288285 -0.0019366819
-0.028801566 -0.019707598 -0.00060773583
0.028828435 -0.019671462 -0.0006073899
0.029139463 -0.019228574 -0.00049809547
-0.025350338 -0.01160512 -0.0048709172
0.02103601 -0.016725166 -0.0055987178
-0.023418523 -0.01075947 -0.0016049292
-0.029970964 -0.017946614 -0.00072381855
0.02955775 -0.014973904 -0.0063928869
-0.030745888 -0.016503014 -0.00045293878
0.028063359 -0.014522507 -0.0046580383
-0.028025219 -0.01707671 -0.0014075084
0.031270634 -0.015460582 -0.00087060907
-0.031732358 -0.014627236 -0.00039373242
0.031842049 -0.01438606 -0.00059122517
0.032012951 -0.014084526 -0.00032232664
-0.030129695 -0.0096644815 -0.0032186892
0.032260761 -0.013397482 -0.00048075177
-0.032645252 -0.012325737 -0.0005143655
0.032486036 -0.012753318 -0.0006102887
-0.033079784 -0.011129859 -0.00044829395
-0.032954983 -0.011417087 -0.0008483486
0.03289571 -0.011576065 -0.00088545925
0.033064693 -0.011194794 -0.00029203136
-0.025413869 -0.011306708 -0.0051112878
0.033209797 -0.010788577 -0.00031655614
-0.029221077 -0.0037978715 -0.004109079
0.033590138 -0.009626694 -0.00064141559
-0.033912584 -0.0082795136 -0.00050948584
0.033838503 -0.0086453063 -0.00045177416
-0.029102841 -0.0083949454 -0.0041858051
0.014239559 -0.0071460493 -0.0081934258
0.024419822 -0.0084798783 -0.0060076676
-0.034260809 -0.006635827 -0.00046601109
0.030421909 -0.0047632498 -0.00616762
-0.023718871 -0.0075439168 -0.00059635367
0.028308412 -0.008553829 -0.0038009619
-0.034683675 -0.0041211518 -0.00061148114
0.029536888 -0.0022025493 -0.0010706056
-0.034753866 -0.0032260916 -0.00044866683
0.02821335 -0.0030808316 -0.0042196359
-0.034815047 -0.0023354515 -0.00046115727
0.028892187 -0.0023673726 -0.00257734
-0.017623898 0.0023604359 -0.0096636014
0.021600313 -0.0026242498 -0.0040071448
-0.021512229 -0.0043116021 -0.0083906744
0.034915015 -0.000638814 -0.00074302685
-0.032862056 -0.0042916532 -0.0014534844
0.023845149 -0.00078316027 -0.011746226
-0.034879476 0.001470785 -0.00037187224
0.034874313 0.001368458 -0.00061878638
-0.031794831 0.0031422046 -0.0030953966
0.034791794 0.0026862635 -0.00043921534
-0.034722418 0.0035550511 -0.00062230485
0.03041102 -0.00036529003 -0.0043332903
-0.034661278 0.0044969297 -0.00042085125
0.034641322 0.0046120873 -0.00048626817
-0.034487661 0.0055285422 -0.00058932975
0.031073466 0.007099702 -0.0024822152
-0.03284872 0.0066255243 -0.0043817325
0.024803868 0.0074039912 -0.00096667756
-0.034115206 0.007272589 -0.00069403125
0.033983126 0.0078969281 -0.00070670294
0.033658631 0.0080824113 -0.0022690855
-0.03389471 0.0083792461 -0.00044791179
0.028558156 0.0057135937 -0.0013837991
-0.033590358 0.0096540889 -0.0005315711
0.026253685 0.0090720635 -0.0054151644
-0.031848516 0.013023647 -0.00093874207
0.025988875 0.00828043 -0.0058734105
-0.033087879 0.011145847 -0.00018777634
-0.032838076 0.011783062 -0.00056635722
0.02459275 0.013896227 -0.013514121
0.033040527 0.011206785 -0.00066512055
-0.021649709 0.010802259 -0.003960452
0.032597378 0.01247046 -0.00043369486
-0.032265365 0.01339476 -0.00041263492
0.032197051 0.013566275 -0.00053432636
-0.032033779 0.014092388 -3.9308758e-05
-0.031807162 0.014461704 -0.0005684112
0.023099933 0.011813071 -0.0031827749
0.032027047 0.014084119 -0.00015393434
-0.030938143 0.015325272 -0.0020582236
0.028799003 0.017710224 -0.0012103064
-0.027427822 0.011398648 -0.0043775411
0.030651491 0.01664776 -0.00077407423
-0.029854847 0.0095159346 -0.0064157564
0.029980268 0.017944288 -0.00058156287
0.025305042 0.0073744608 -0.0063945409
-0.021363413 0.014139575 -0.0019467461
0.02968207 0.018422443 -0.00072449201
-0.029050983 0.019362938 -0.00084128347
-0.020686118 0.012534245 -0.0053210161
0.028851584 0.019640326 -0.00060909154
0.023034317 0.013279817 -0.0070975581
-0.028236454 0.020467684 -0.00079037528
-0.027909746 0.020907115 -0.00040144107
0.027972087 0.020823263 -1.0826392e-05
0.021332555 0.016188018 -0.0043210294
-0.027366133 0.021623868 -0.00043150492
0.023698715 0.019608209 -0.0035826808
-0.027037777 0.022023749 -0.00010629918
-0.01921173 0.0089693135 -0.0039224043
0.026601432 0.022548776 -0.00034729208
0.027046405 0.022013364 -0.0003939789
-0.018339166 0.015336882 -0.0042986427
-0.015888762 0.019656159 -0.011890559
0.025628775 0.023709923 -0.0003920054
0.026180409 0.02305536 -0.00092471892
-0.025171546 0.024242716 -0.00042238631
-0.022622328 0.015480008 -0.0072516664
0.02494462 0.024459068 -0.00075812725
0.025185887 0.024235649 -0.00035371835
-0.024209144 0.025172479 -0.00057033321
-0.021031583 0.018155072 -0.0012547275
0.023743555 0.025579302 -0.00059929659
0.024151517 0.025233038 -0.00052663335
-0.017250221 0.015601726 -0.0080910474
-0.022313926 0.026792711 -0.0003776497
0.015997432 0.01312885 -0.010988958
0.023209665 0.026032444 -0.00091039971
-0.019398581 0.026128897 -0.0037279122
-0.020899996 0.027909523 -0.00052405236
0.02086154 0.027938196 -0.00040768395
0.021422112 0.027515743 -0.00035459182
-0.020368246 0.028306043 -0.0005800426
-0.019710656 0.028796405 -0.00042669807
0.016433593 0.020602107 -0.0088198539
0.021942541 0.023894371 -0.0028610339
-0.019098418 0.029252335 -0.00043171909
-0.01865058 0.029561952 -0.00033843415
-0.017992143 0.029911142 -0.00097647728
0.01794799 0.029986072 -0.00041473497
0.011711491 0.026471181 -0.00051940297
0.019193124 0.02918232 -0.00029567545
-0.013128391 0.023298858 -0.0030508582
-0.016365808 0.030778382 -0.00048440183
0.015979523 0.030969206 -0.00019171345
0.016153796 0.030883117 -0.00065597804
0.013899977 0.024707144 -0.0061432617
-0.015379054 0.031265836 -0.00077542983
-0.010276591 0.021204665 -0.0024331161
0.012555694 0.021073125 -0.0012137976
0.01543157 0.031239895 -0.00060740218
-0.013487453 0.032144461 -0.00035583449
-0.012514794 0.03251604 -0.00054687512
-0.011728315 0.032816496 -0.00050352898
0.011649989 0.032846414 -0.00064618862
0.012297952 0.032598875 -0.00032772031
0.0061252736 0.025309874 -0.0055659944
-0.011092236 0.033059489 -0.00080402556
-0.003672028 0.027723685 -0.0043759309
-0.0095899124 0.033595905 -0.00055528269
-0.0018895972 0.022296673 -0.0072824783
-0.007955364 0.03397958 -0.00077573484
0.0085136024 0.033866879 -0.00052824564
0.0078435009 0.031429637 -0.0047574104
0.010503435 0.033271249 -0.00052158901
0.011083853 0.033062689 -0.0007976701
-0.0058843163 0.028557399 -0.0023175459
-0.0063718283 0.034262557 -0.00049576606
-0.0051820953 0.034475166 -0.00030150401
-0.0042861807 0.03460332 -0.0004208016
-0.0034264845 0.034682885 -0.00064372725
-0.0021959445 0.034796767 -0.00041707917
0.0040583722 0.022420973 -0.001934427
0.0033893734 0.033096772 -0.0040840493
0.00073228648 0.034916036 -0.00058267632
0.0017656063 0.034836594 -0.00070696411
0.0024075748 0.034777187 -0.00051305234
0.0033790744 0.034687273 -0.00045559998
0.0014436432 0.032134678 -0.0023533758
0.0054307445 0.034430731 -0.00050446525
0.0063689128 0.034263078 -0.00054319401
0.0076947073 0.034026157 -0.00051647919
-0.0075324527 -0.034055151 0.00039905976
-0.0065453565 -0.034231547 0.0005625356
-0.0053196452 -0.034450579 0.00039950266
-0.0045561586 -0.034570731 0.00044188864
-0.0032255722 -0.034701478 0.00050275802
-0.0024306935 -0.034775045 0.00043335039
-0.0014637144 -0.034863558 0.00055036036
0.0032455481 -0.030802265 -0.00053973886
0.00047798606 -0.034933962 0.00056929764
0.00052685908 -0.026164943 -0.0091811512
7.634455e-05 -0.030214934 -0.0048564561
0.0057613803 -0.019610483 -0.00088744983
-0.00085362792 -0.029130351 -0.001436584
0.0056381533 -0.034393668 0.00030764317
0.0063717621 -0.034262568 0.00061037281
0.0072655291 -0.034102853 0.00052067923
-0.011747378 -0.029600978 -0.0026264254
-0.0093921451 -0.033654857 0.000552207
-0.0082702991 -0.024566682 -0.0015619618
-0.0078878812 -0.033991639 0.00078609213
0.0084375516 -0.033876784 0.00067418249
0.0078559574 -0.028837368 -0.0061349156
0.01040451 -0.033309583 0.00065775006
0.011176522 -0.033027291 0.00075695
-0.0079364218 -0.017599132 -0.0073008663
-0.012634531 -0.032470297 0.00055076985
-0.011814922 -0.032783408 0.00057769963
0.011733096 -0.032814667 0.00054983882
0.010120358 -0.031649578 -0.00055519695
0.013473186 -0.032149911 0.00039639333
-0.015540594 -0.031186035 0.00062658329
-0.014540727 -0.031679969 0.00035183044
-0.013992565 -0.031950757 0.00015077519
0.013931734 -0.031974733 4.2967673e-05
0.014268877 -0.031814259 0.00048861309
0.0090156188 -0.021395741 -0.004402759
-0.010783959 -0.018197633 -0.0085029909
-0.016713239 -0.03060675 0.00049818773
0.016746612 -0.030590266 0.00055186439
0.017447174 -0.030239211 0.00031930426
-0.014982713 -0.026700344 -0.0074298037
-0.017927401 -0.029971223 0.00070633064
0.018490016 -0.02965343 0.00057376811
0.0043866863 -0.03001067 -0.0060093966
-0.012459844 -0.019985713 -0.0083093187
-0.019661605 -0.028832976 0.000378987
0.01124728 -0.018150682 -0.0046616551
0.016218062 -0.029373001 -0.00021833178
-0.022031255 -0.027032636 0.00010310637
-0.021465043 -0.027482685 0.00056236319
-0.020890906 -0.027916301 0.0005743365
0.015555497 -0.024553364 -0.0076395948
0.01441938 -0.021243189 -0.0058313087
-0.023087954 -0.02613575 0.00065493595
-0.022693533 -0.026470518 0.0004702243
0.021656159 -0.02583904 -0.0014259185
0.023149921 -0.026083155 0.00030987937
-0.012998841 0.00087695383 -0.010840973
-0.015148742 -0.017524732 -0.00081013783
0.023453267 -0.025825687 0.00053377508
0.024279153 -0.025121681 0.00035498335
-0.026426762 -0.018507537 -0.002596614
-0.021154895 -0.021184286 -0.0015469673
0.024634484 -0.024785686 0.00052838522
0.025163596 -0.024258401 0.00042669033
-0.011849839 -0.014849259 -0.0028589929
-0.024297016 -0.019139558 -0.0054873265
0.02564537 -0.023688883 0.00069096667
0.026137602 -0.023106866 0.00012355064
-0.026502434 -0.022667889 0.00047780797
0.026735496 -0.022387465 0.00063987414
-0.02744998 -0.021514881 0.00035310464
0.021858202 -0.010616866 -0.0063107186
-0.028209398 -0.020504082 0.00048996776
-0.027919393 -0.02089414 0.00040414146
0.022220196 -0.022085989 0.00045767659
-0.029170655 -0.019211167 0.00019065011
-0.014712537 -0.010382792 -0.0027067205
0.028785435 -0.019729299 0.00054628728
0.029187931 -0.019172095 0.0005956057
-0.025797019 -0.01450968 -0.0028569405
0.021312777 -0.014981662 -0.0045679249
-0.021897532 -0.018604912 -0.0013831032
0.02700723 -0.014810196 -0.0021020826
-0.021679616 -0.022275439 -0.0015208957
0.022043524 -0.010819567 -0.010915481
-0.03125912 -0.015529013 0.00043946429
0.025588874 -0.017433776 0.00052184158
-0.03185853 -0.014361857 0.00054521882
0.031776495 -0.014550831 0.00035063468
-0.031140694 -0.0082339467 -0.0030412131
0.032242939 -0.013445358 0.00049138954
-0.032578234 -0.01252212 0.00044361214
0.02526043 -0.013805625 0.00015425247
-0.01091932 -0.0077181552 -0.0029973814
-0.024282278 -0.0095216539 -0.0065802499
0.03292923 -0.011535773 0.00052829081
0.033070009 -0.011149258 0.00050061004
-0.021440798 -0.0089800535 -0.0010263766
0.031162331 -0.01330523 0.00052086241
-0.025273638 -0.0039236126 -0.0038175555
0.033612169 -0.0095607182 0.00062156655
-0.028786119 -0.0080311876 -0.0046147541
0.02500706 -0.0093621612 -0.0055930153
-0.02502127 0.00065869914 -0.0012949681
0.0339889 -0.0079252142 0.00047528849
0.026209032 -0.0093701724 -0.0096460208
-0.034294162 -0.006464011 0.00052163133
0.034260124 -0.0066167759 0.00055863662
-0.030734602 -0.004140344 -0.0021403618
0.029665612 -0.01022154 -0.00073995814
-0.034666374 -0.0045173098 0.00027182302
0.031957448 -0.00052445632 -0.0028915904
-0.0347239 -0.0035937494 0.00053835398
0.034737911 -0.0034611926 0.0004414405
-0.027252411 -0.0044217845 -0.0014560935
0.034789827 -0.0026035805 0.00059434265
-0.028006583 0.0033487056 -0.0043451828
0.034868021 -0.0015401476 0.00050557539
-0.034938253 -0.00044610226 0.00054261874
0.034934517 -0.00019902148 0.00069164066
-0.034925252 0.00040966031 0.00067190913
0.033234667 0.0009707358 -0.0055641234
-0.034858033 0.001746863 0.00041801122
0.034875084 0.0014214284 0.00052928383
-0.028115261 -0.00090795773 -0.0045228414
0.03480896 0.0024207646 0.00046453555
-0.034732442 0.003586635 0.000376385
0.026242634 0.0033680531 -0.00085085031
-0.022882784 0.0052968934 -0.0044456455
0.034687266 0.0041530039 0.00049467676
-0.026402421 0.0071902662 -0.0004059558
0.030273076 -0.0012553043 -0.0037739298
-0.01303174 0.0032077804 -0.0038624676
0.034288 0.0065036835 0.00047836656
-0.033712517 0.0086147459 -0.00012857035
-0.03399127 0.0078020734 0.0009400663
0.033980727 0.0079128984 0.00068781048
0.032379221 0.0031766086 -0.00051424885
-0.025604125 0.011669554 -0.0018193413
0.033886027 0.0084553352 0.00030320181
-0.029740965 0.011321828 -0.0042570503
0.03366394 0.0093993964 0.00046983053
-0.026838988 0.010695004 -0.0010135951
0.032597035 0.011390914 -0.00083123398
-0.012133835 -0.0047401162 -0.018690884
-0.0054871268 -0.01475141 -0.0088677928
0.026016107 0.011960524 -0.009786753
0.033064406 0.011171832 0.00045295269
-0.031096451 0.014057041 -0.0013550302
0.032158792 0.010906466 -0.0014905402
-0.032248184 0.013417187 0.00058354909
0.032254048 0.01342422 0.00041878835
-0.031807482 0.014442899 0.00068839308
0.029001996 0.011876134 -0.0002412616
-0.031274244 0.015520575 0.00025135608
0.031271487 0.015483208 0.00064596086
-0.030744486 0.016513757 0.00037809179
0.030626651 0.016733823 0.00041423179
-0.029945651 0.01517484 -0.0023601947
0.021582646 0.0034865909 -0.014733771
-0.029728185 0.018390622 0.00040156441
0.029635033 0.018513521 0.00063806603
-0.029118132 0.019274153 0.00056605786
-0.029273354 0.014047844 -1.2479451e-05
0.028773893 0.019744821 0.00040797633
0.029180527 0.019197891 0.00041581184
-0.025216438 0.015488354 -0.0032277354
-0.030949891 0.0025931539 -0.0076475111
0.027871016 0.02095921 0.00034388245
0.028357048 0.020305485 0.00037502448
-0.027279431 0.021732986 0.00074104883
0.027394142 0.021583481 0.00041743249
-0.027050478 0.022008462 0.00051923312
-0.026575889 0.022579504 0.00051200541
0.024137562 0.013738883 -0.0029313702
-0.026010919 0.023259295 1.0195197e-05
-0.019607045 0.01558924 -0.0033872998
0.020186655 0.015714435 -0.00045787412
0.026095584 0.02315742 0.00063975027
-0.025372759 0.02402715 5.9198828e-05
-0.02481211 0.024645381 0.00029329868
0.0039383564 0.014604516 -0.0068040644
0.025803916 0.0085264379 0.00028842193
-0.024190322 0.025197402 0.00051691814
-0.023638628 0.02566836 0.00038315711
0.012940763 0.018191654 -0.0038628555
0.014022902 0.013177838 -0.010484753
-0.022531522 0.026608028 0.00040651287
0.015369726 0.018726159 -0.0062777121
-0.019977704 0.02223544 -0.0026725833
-0.020880584 0.027923997 0.00040100599
0.025537454 0.017210342 -0.00010185561
0.021500725 0.027451722 0.0003800586
-0.021247558 0.025222098 -0.011458112
-0.020576855 0.02815049 0.00044141259
-0.01884478 0.014040312 -0.0018333397
0.020531613 0.025111144 -0.0010324119
0.020311678 0.028348226 0.00025407382
-0.018620443 0.01963721 -0.0014525264
-0.018784273 0.029458757 0.00046391971
-0.01792657 0.02995716 0.00086778245
0.017977366 0.029956207 0.0005662425
0.018213546 0.02983259 0.00039105935
0.012556301 0.016116733 -0.0060793404
-0.01728916 0.030321594 0.0007323086
-0.011897938 0.019726226 -0.002452851
0.016327212 0.030797452 0.00045220894
0.017563423 0.030186763 0.00019790824
-0.0093639754 0.029053327 -0.00030700545
-0.014542797 0.031678945 0.00065981108
-0.0051914323 0.025857057 -0.01381443
0.015686927 0.011612048 -0.00021443245
0.0099946577 0.027428772 -0.0018144374
0.014403733 0.022264643 -0.0013706874
-0.013513554 0.032134488 0.00057272369
-0.012428432 0.032549031 0.00037358887
-0.011539723 0.032888539 0.0006888113
0.0116065 0.032863028 0.00069130212
0.012338907 0.032583233 0.00065836555
0.016544163 0.027030453 -0.0019270941
-0.011185288 0.033023946 0.000844792
-0.0051320177 0.03043521 -0.00054865377
-0.0095410738 0.033623237 0.00042681792
-0.0084343879 0.033882644 0.00041381069
-0.0084539102 0.011645038 -0.031785086
0.0057939626 0.024519481 -0.011266805
0.0067714201 0.033926256 0.00049477437
0.0094643375 0.033648681 0.00032487832
0.014539673 0.029599285 -4.2321884e-05
0.0033804027 0.029910084 -0.0099173561
-0.00086838921 0.029422309 -0.00026878991
-0.006423492 0.034253325 0.00055905589
-0.002193742 0.020673979 -0.003931406
-0.0045079757 0.03457449 0.00041136445
-0.0034533434 0.034680396 0.00057419657
0.0062261643 0.024015432 -0.0044119437
-0.0059979833 0.019098563 -0.00013215128
-0.00050501298 0.034943666 0.00038723354
0.00055700651 0.034931719 0.00042205141
0.0013206626 0.026997587 -0.0035759688
0.0025661811 0.034762502 0.00054408668
0.0044429218 0.034446526 -0.00041891125
0.0074352352 0.027874522 0.00037828603
0.0054283771 0.034431152 0.00052866963
0.0062667872 0.034281328 0.00053880236
0.0073224911 0.034092676 0.00062989298
-0.0072325752 -0.034094758 0.0013822296
-0.0073806616 -0.034000203 3.3964054e-05
-0.0054652458 -0.034424566 0.0012518107
-0.004350788 -0.034596328 0.0012884139
-0.0060549835 -0.017965565 0.0008901445
-0.0024185409 -0.034773584 0.0012141066
-0.0014224169 -0.034833118 0.0013869189
-0.0036321131 -0.03025342 -0.0047261789
0.00020980222 -0.034886047 0.0014920881
-0.0015665775 -0.027607422 -0.0035546802
0.0098301014 -0.019656895 -0.0020584622
0.0035661876 -0.03062149 -0.004353784
0.0044838227 -0.034574561 0.0014768397
0.0090604527 -0.031166697 0.0006292183
0.0065806685 -0.034219153 0.0014628959
0.0046076467 -0.028968444 -0.0053468104
-0.010460688 -0.033231746 0.0015052576
-0.0093784463 -0.033577554 0.0014755958
-0.0084790252 -0.033795431 0.0016016343
-0.013182387 0.032037146 -0.0041648168
0.0078668632 -0.033905886 0.0019664564
0.0083871717 -0.033839174 0.0013322266
0.011853509 -0.028670479 -0.0040235794
0.010661368 -0.033164471 0.0015200423
-0.01068934 -0.021401538 -0.0042745494
-0.012490639 -0.032520518 0.0015481649
-0.0071211285 -0.032135628 -0.00091771659
0.011802645 -0.032772213 0.0015938863
0.012404497 -0.032556333 0.0013929916
0.0086595574 -0.03103069 -0.0012792144
-0.0088733435 -0.031173291 -0.0015576148
-0.014553298 -0.031673759 0.001409961
-0.013947458 -0.031968728 0.0017573168
0.013966314 -0.031961519 0.0013711427
0.015114516 -0.029640421 -0.0012728532
0.015533378 -0.031189602 0.0013829643
-0.017288029 -0.030266676 0.0013502885
-0.014643334 -0.016567845 -0.0094752125
-0.01597454 -0.030971669 0.0013719929
0.016396027 -0.030746387 0.0013864301
0.017216565 -0.030306486 0.0013468193
-0.019283615 -0.029041871 0.001529505
-0.015834101 -0.02672351 -0.0041233124
0.0050694766 0.017111577 -0.030006187
0.018514186 -0.029548522 0.0015344754
0.019127598 -0.029156554 0.0014130463
-0.020401908 -0.028264081 0.0018821884
-0.019663079 -0.028780159 0.0016172437
0.019550096 -0.028866818 0.0015081936
0.020304574 -0.028349701 0.0014862458
-0.022047739 -0.027018642 0.0010613094
-0.021423014 -0.027514994 0.001509152
-0.020926781 -0.02788955 0.0015715272
0.020793354 -0.027989045 0.0015401368
0.0094243241 -0.026491368 0.00019149031
0.022050014 -0.02701671 0.0018948716
-0.023176484 -0.026060609 0.0014137491
-0.018044662 -0.026810255 -0.00099247438
0.022883991 -0.026046703 0.00051010138
0.021587655 -0.017309766 -0.0090272101
-0.015203824 -0.017772734 -0.0069730738
-0.021759901 -0.020730082 -0.0062881559
0.023691522 -0.025589082 0.0013428163
0.024198551 -0.025090117 0.0015453703
-0.025217891 -0.024089452 0.0014081827
-0.022231087 -0.019683409 -0.00036508075
0.011686854 -0.014301505 3.8103026e-05
0.025262516 -0.024069838 0.0011702884
-0.025885012 -0.016230484 -0.0048806155
-0.025674917 -0.02359998 0.0014087282
0.025539273 -0.023733059 0.001511525
-0.027052673 -0.022005826 0.0015168809
-0.026566373 -0.022588581 0.0014784752
0.02137555 -0.013542674 -0.00064948678
0.027035199 -0.022026852 0.0012500642
-0.027467331 -0.021501053 0.0013355883
0.027408106 -0.021566797 0.0015128821
-0.028323302 -0.020347664 0.0014374309
-0.027955538 -0.020845525 0.0013154121
0.027899053 -0.020921499 0.0015275603
0.013764854 -0.0065435572 -0.0062930915
-0.029103821 -0.019200159 0.0014901123
-0.028692428 -0.019817539 0.0015588024
0.028875973 -0.019556329 0.001408878
0.029141268 -0.019125111 0.001610548
-0.029660946 -0.018362479 0.0014078346
0.020723302 -0.019237611 0.00015653833
-0.022112917 -0.012498321 -0.0016624321
-0.02995033 -0.017845564 0.0019149159
0.029914912 -0.017901408 0.0019027017
0.030195892 -0.017461149 0.001260802
-0.03080946 -0.015144016 0.0011266371
0.030626889 -0.016634202 0.0013329292
-0.031257022 -0.015429679 0.0013965936
-0.030957157 -0.015959622 0.0017670286
0.030977726 -0.015927626 0.0017012369
0.031171817 -0.015574272 0.0015573063
-0.031655952 -0.014598487 0.0015845469
0.027071783 -0.01158331 -0.0019636462
-0.022717517 -0.0035035331 -0.0063246801
-0.031972572 -0.01391663 0.0016345717
0.031993035 -0.01394327 0.0012718763
0.02786402 -0.010121245 5.5549158e-06
-0.027399668 -0.0084487153 -0.0032171854
0.022838065 -0.0051466981 -0.002825744
-0.030045152 -0.00067603716 -0.0040606339
-0.032901525 -0.011490026 0.0013591434
0.032826044 -0.011654492 0.0016638287
0.033035152 -0.011035388 0.0019275943
-0.029161602 -0.0094420724 -0.003703574
0.030433452 -0.0062026004 -0.0023058462
-0.033606716 -0.0093956506 0.0012711248
0.033602197 -0.0093559315 0.0014514339
-0.033862207 -0.0082913851 0.0014541857
0.030304359 -0.005467074 -0.0017958879
-0.018916853 -0.0061680665 -0.0046157595
-0.027878048 -0.00069707807 -0.0026866568
0.033946887 -0.007850321 0.0016153579
0.034068353 -0.007265606 0.0016474653
-0.034251153 -0.0064108386 0.0015911738
-0.034467332 -0.0053054406 0.0014520558
0.034417786 -0.0055653695 0.0015204707
-0.034575894 -0.0045726094 0.0015069387
0.034090038 -0.0054694959 0.00019302544
-0.014835313 0.00078063738 -0.0052529834
0.027667703 -0.0025739158 -0.0052783219
-0.02834034 0.0029817545 -0.001580348
0.034750417 -0.0024366577 0.0016209924
-0.034810103 -0.0014404844 0.0018110105
0.034843981 -0.0014243755 0.0011513529
-0.034857675 -0.00038817243 0.0015378123
0.03486187 -0.00064911711 0.0014896499
-0.034865923 0.00045865489 0.0014487731
0.030084288 0.0015643168 -0.002949785
-0.024527516 -0.0046129185 -0.0040794574
0.026968418 0.00017413916 -0.00084369001
-0.028784102 -0.0042362749 -0.0002137409
0.026891271 0.00011488333 0.0013238494
-0.034683667 0.0035160342 0.0014570139
0.034697659 0.003412785 0.0013195521
-0.034599137 0.0044501508 0.0013939079
0.012886721 0.0063920124 -0.0031775013
-0.034387469 0.0057344856 0.0015498495
0.033416223 0.0065000369 -0.0011678756
-0.03422926 0.0065825023 0.0013099881
0.034243435 0.0064482661 0.0015879058
-0.034103245 0.0072017303 0.0012243893
-0.033962484 0.0079114214 0.001053857
0.028302714 0.0048971893 -0.003236898
0.019787097 -0.019160513 -0.0007273524
-0.033783607 0.0086134356 0.0015891942
0.023299797 0.014873489 -0.0016611246
-0.033536829 0.0095393918 0.0015641034
0.033570763 0.0094882334 0.0013576398
-0.033222452 0.010545907 0.0015237667
0.033182848 0.010618711 0.0018362157
-0.032859445 0.011592527 0.0014557155
0.032854605 0.011592234 0.0015486267
-0.030689217 0.0083045634 0.00011271923
0.032566406 0.012394798 0.0015286222
-0.031374939 0.010418041 -0.0018593356
-0.031950817 0.013949156 0.001705344
0.032192465 0.013387113 0.0016912962
-0.031769998 0.014362937 0.001551687
0.031701844 0.01451966 0.0014898474
-0.018854454 0.015251606 -0.00054402015
0.021762252 0.016169706 -0.0010302286
-0.030712267 0.016458638 0.0014560057
0.030822724 0.016221637 0.0017067028
-0.030227421 0.017371053 0.0015402859
0.029984938 0.017847039 0.0014002032
0.030185862 0.017447023 0.0015682254
-0.020461237 0.014328904 -0.002877203
0.029482534 0.018612389 0.0015575085
-0.0096021919 -0.0054249018 -0.0062659793
-0.028761722 0.019728642 0.0014047185
