# .PCD v0.7 - Point Cloud Data file format
VERSION 0.7
FIELDS x y z
SIZE 4 4 4
TYPE F F F
COUNT 1 1 1
WIDTH 1255
HEIGHT 1
VIEWPOINT 0 0 0 1 0 0 0
POINTS 1255
DATA ascii
0.042846497 -0.0099054454 -0.0158353
-0.044787847 -0.016912604 -0.014378039
-0.034144536 -0.016343033 -0.014481305
-0.033894669 -0.016810594 -0.014476839
-0.043251321 -0.013411316 -0.024499999
0.034104135 -0.016418627 -0.014462348
0.044924337 -0.016462743 -0.014302581
-0.045111567 -0.015845602 -0.014609397
0.032905888 -0.021374442 -0.015745264
0.045223109 -0.015477948 -0.014518459
-0.04548765 -0.014605983 -0.014127471
-0.035160035 -0.014367213 -0.014687171
-0.034900021 -0.014929314 -0.01427068
0.034931421 -0.014870556 -0.014211667
0.035165291 -0.014349888 -0.014698002
0.045476746 -0.01464194 -0.014684683
-0.045753404 -0.013730031 -0.01480546
-0.035408534 -0.013548195 -0.014514402
0.035403866 -0.013563575 -0.0146772
0.045925871 -0.013161546 -0.014389688
-0.0039462373 -0.020310828 -0.016277332
-0.00663365 -0.037346747 -0.014534943
0.03571061 -0.012552577 -0.014628349
0.015889121 -0.0025227189 -0.017774016
0.046194673 -0.012275558 -0.014384417
-0.0031220876 -0.019104717 -0.016982568
-0.036025811 -0.011513706 -0.014189968
-0.035986099 -0.011644586 -0.014999809
0.035895709 -0.011942507 -0.014896845
0.046362154 -0.011723524 -0.014545925
-0.041598804 -0.014825532 -0.015220653
-0.029344346 -0.002580883 -0.015655126
0.018138338 -0.00026713731 -0.015937431
0.04676282 -0.010402861 -0.014527747
-0.047080051 -0.0093431557 -0.014159207
-0.046909634 -0.0099189607 -0.01455636
-0.036660604 -0.0094214939 -0.014816863
0.026507348 -0.014246741 -0.016285235
0.046911187 -0.0099138357 -0.01416318
0.047059715 -0.0093609653 -0.01464168
-0.047166914 -0.0084609697 -0.014227709
-0.037058894 -0.0081087761 -0.014490085
0.037025981 -0.008217263 -0.01496702
0.02293033 -0.00093325914 -0.016890243
-0.043625884 -0.0016041682 -0.015733972
-6.8116933e-06 0.011092972 -0.019234031
0.03727413 -0.0073413523 -0.014441339
0.046602923 -0.0028742487 -0.016909452
-0.047344178 -0.0066606281 -0.014230058
0.037356388 -0.0065357522 -0.014397921
0.047321811 -0.0068878178 -0.014546372
-0.034466513 0.0078462008 -0.01489166
-0.037498951 -0.0050880462 -0.014706773
0.037466969 -0.0054127839 -0.014319538
0.047459327 -0.0054911673 -0.014653292
-0.025144339 -0.01256118 -0.014663148
-0.037579302 -0.0042721019 -0.014750332
0.037554547 -0.004523471 -0.014517328
0.047532219 -0.0047508674 -0.014355013
-0.047641654 -0.0036394252 -0.014574068
-0.037618615 -0.0038728346 -0.014214908
0.025929546 0.0056708814 -0.014901586
0.047667753 -0.0033743554 -0.014760992
-0.03773338 -0.0027074951 -0.01461108
0.037726987 -0.0027723762 -0.014706066
0.047740147 -0.0026391277 -0.014560674
-0.047812797 -0.001901316 -0.014019184
-0.037827734 -0.0017493173 -0.014458256
0.028378248 0.0043041031 -0.014901351
0.047884107 -0.0011770339 -0.01463213
-0.039700221 -0.010873484 -0.015532203
0.037957557 -0.00043104042 -0.014765304
0.047952689 -0.00048050503 -0.014350975
-0.047945805 0.00055046519 -0.01434792
-0.037967347 0.0003315864 -0.014248078
0.039343718 0.0025827042 -0.015722569
0.047955539 0.00045159552 -0.014364608
-0.047850568 0.001517679 -0.014654689
-0.0014259489 0.0056830933 -0.017840847
0.037851986 0.0015030423 -0.014515722
0.047858071 0.0014414319 -0.014568947
-0.047616504 -0.00051213603 -0.016320158
-0.03775043 0.0025343141 -0.014675632
0.037732344 0.0027179823 -0.014150893
0.037119977 -0.0074479366 -0.014768109
-0.047660343 0.0034495874 -0.014474788
-0.037647769 0.0035768105 -0.014942627
0.03761879 0.0038711254 -0.014475767
-0.047571003 0.0043569282 -0.014785714
-0.037540711 0.0046639582 -0.014061132
0.037528489 0.0047880807 -0.01422597
0.047566079 0.0044070142 -0.014515924
-0.047443941 0.0056474563 -0.01432403
-0.037465386 0.0054288805 -0.014536138
0.037483405 0.0052459179 -0.014369469
0.024507634 0.0028862157 -0.017034937
-0.025932884 -0.0020200803 -0.016060401
-0.037334852 0.006754417 -0.014469258
0.037343003 0.0066716447 -0.014307717
0.047359891 0.006501019 -0.014478873
-0.047275305 0.0073601506 -0.01472608
-0.037299298 0.0071154973 -0.01464704
0.037190344 0.00761595 -0.014464712
0.047275633 0.007356775 -0.014905635
-0.047135547 0.0087795276 -0.014411647
-0.036990643 0.0083337184 -0.014558695
0.025213396 0.013256057 -0.01645584
0.027608883 0.014914126 -0.015907258
-0.047066152 0.0093258861 -0.014383348
-0.046970792 0.0097173573 -0.014390254
-0.036605723 0.009602393 -0.014577787
0.036590651 0.0096520539 -0.014292053
0.04691498 0.0099013317 -0.014597735
0.047071971 0.0093282955 -0.014729618
-0.04665513 0.010757836 -0.014458328
-0.036447018 0.010125454 -0.014457734
0.036351912 0.010438917 -0.014605718
0.044261456 0.010077786 -0.01720532
-0.046409521 0.011567396 -0.014652726
-0.036057878 0.011408014 -0.014433472
0.035891715 0.011955667 -0.01494565
0.036098119 0.011275399 -0.014502235
0.046320967 0.011859271 -0.014623364
-0.04609802 0.012594129 -0.014727876
-0.035668701 0.012690699 -0.014713104
0.035795268 0.012273543 -0.01444838
0.044176679 0.0039001647 -0.016190747
-0.045939546 0.013116494 -0.014451544
-0.029819673 0.020391315 -0.014777538
0.03535866 0.013712571 -0.014828218
0.045774765 0.013659624 -0.014631155
-0.041364003 0.0060225213 -0.016260607
-0.0351886 0.014273063 -0.014633662
-0.034913875 0.014903391 -0.014877501
0.044604845 0.017515821 -0.015395505
0.045480333 0.014630103 -0.0146389
-0.04516777 0.015660346 -0.014533453
-0.034705974 0.015292429 -0.014467515
0.034433786 0.015801765 -0.014782572
0.045306101 0.015204386 -0.014316856
-0.034193281 0.016251806 -0.014593131
0.01572278 0.01951734 -0.015193376
0.044922918 0.016467424 -0.014448341
-0.044577505 0.017605942 -0.014626672
-0.021228144 0.0033566384 -0.016830288
0.028123735 0.023830807 -0.01562966
0.044591449 0.017559964 -0.014332418
-0.027372912 0.0095905159 -0.015420127
0.0058595184 -0.046450019 -0.024499999
-0.032946531 0.018584806 -0.014576076
0.034295846 0.002669157 -0.017813325
0.033220433 0.018072262 -0.014583508
0.04423387 0.018578805 -0.014088258
-0.044004552 0.01900786 -0.014340293
-0.024344627 0.031203683 -0.019266091
-0.032524541 0.019374456 -0.014364051
0.03230051 0.019793676 -0.014505005
0.043845799 0.019304886 -0.014631281
-0.043114424 0.020673309 -0.01439671
-0.042979646 0.020925485 -0.014123586
0.027479108 -0.032303229 -0.024500001
-0.031844273 0.020647421 -0.014916109
0.031815454 0.020701345 -0.014281694
0.032036245 0.02028819 -0.014374031
0.042962771 0.02095706 -0.014077531
0.043250546 0.020418627 -0.014427386
-0.042601127 0.021633703 -0.014465901
-0.031328782 0.02143757 -0.014541825
0.00952233 0.019974459 -0.015616718
0.030958783 0.022338625 -0.015936865
-0.042204652 0.022375517 -0.014391893
-0.041942529 0.022865951 -0.014013911
-0.0072318725 0.006365574 -0.017924324
0.030488301 0.022461588 -0.014599272
0.041956075 0.022840612 -0.014635082
-0.031931136 0.021892652 -0.015058192
-0.030044308 0.023002535 -0.014926258
-0.011652663 0.013437493 -0.01704422
0.029650489 0.023482349 -0.014813902
0.041545115 0.023609526 -0.014687343
-0.041150935 0.024347048 -0.014746485
-0.040978916 0.024668895 -0.014092174
-0.02901445 0.024257276 -0.014054747
0.02895372 0.02433126 -0.014839118
0.029126298 0.024121003 -0.014518036
0.040997341 0.024634426 -0.01498572
0.04107523 0.024488691 -0.014145652
-0.040365983 0.025815712 -0.014175199
-0.028169956 0.025286179 -0.014466375
-0.027763812 0.025781009 -0.014489312
0.027702607 0.025855578 -0.014235206
0.025918137 0.02864252 -0.015477064
0.017562369 0.017101787 -0.019122828
-0.040157769 0.02620529 -0.014053194
-0.039894599 0.026675297 -0.014602967
-0.02695366 0.026768072 -0.014494857
0.026911605 0.026810644 -0.014442172
0.027146656 0.026532926 -0.014597689
0.03983717 0.026752897 -0.014516303
0.040085737 0.026340054 -0.014010292
-0.0401145 0.018684883 -0.016489316
-0.038898632 0.027900489 -0.014392395
-0.026345253 0.027300697 -0.014511865
0.018429121 0.0089616654 -0.017042352
0.0063199257 0.031499751 -0.019022921
0.023993818 0.019117404 -0.01804038
-0.038153797 0.02880802 -0.014710351
-0.025371075 0.028100275 -0.014320998
0.001329707 0.032455258 -0.014901638
0.024613198 0.028722316 -0.014420524
0.025412107 0.028066598 -0.014508596
0.038392898 0.028516695 -0.014426282
-0.037735652 0.029317502 -0.01432264
-0.02412539 0.029122697 -0.014464215
-0.023539228 0.0296038 -0.014363664
0.023442177 0.02968346 -0.014451092
0.024041763 0.029191334 -0.014938556
0.029630428 0.016230656 -0.01446632
-0.037075981 0.030121256 -0.014676558
-0.036821708 0.030431071 -0.014572349
-0.022082314 0.030799596 -0.014047546
-0.012570372 0.037538368 -0.024499999
0.022459399 0.030490099 -0.014248173
0.036640473 0.030651893 -0.014362446
-0.03616862 0.031226812 -0.014375282
-0.035692453 0.031806987 -0.014353341
-0.021602223 0.03119364 -0.014558455
-0.020747622 0.031790726 -0.014320639
0.02083157 0.031745862 -0.014732687
0.021606831 0.031189857 -0.014565537
0.035840567 0.031626515 -0.014351622
0.036261253 0.031113945 -0.014235468
-0.035246164 0.03235076 -0.014738668
-0.034824748 0.032864224 -0.01435172
-0.020180769 0.032093652 -0.014292657
-0.019661505 0.032371145 -0.014304376
-0.0186297 0.032922536 -0.014455731
0.022092165 0.03367354 -0.016104512
0.020149898 0.032110151 -0.014498672
0.034940433 0.032723267 -0.014575236
0.035390727 0.032174617 -0.014264883
-0.034305368 0.033497043 -0.014687775
-0.033969782 0.033905931 -0.014483092
-0.017372621 0.033594321 -0.014209419
-0.016788296 0.03390659 -0.014663101
0.016879942 0.03385761 -0.014936853
0.017660324 0.033440571 -0.014382774
0.033941686 0.03394017 -0.014303657
0.034414835 0.03336367 -0.01462834
-0.039220165 0.017418478 -0.019262616
-0.016294664 0.034170382 -0.014433532
-0.0011577349 0.016518708 -0.016475072
-0.014854538 0.034939982 -0.014703482
0.015747532 0.034462765 -0.014416394
-0.010128953 0.024480416 -0.019622076
0.032871861 0.034818482 -0.014439094
0.033363845 0.03441469 -0.014769003
-0.019263435 0.019209027 -0.016934002
-0.03172132 0.035762765 -0.014378078
0.0055788578 0.019688062 -0.017694704
-0.012599502 0.035696372 -0.014605137
0.011860128 0.035920706 -0.014572318
0.012598875 0.035696562 -0.014631853
0.013285905 0.03548811 -0.014847703
0.014683236 0.035031527 -0.014458366
0.031936619 0.035586055 -0.014839809
0.03259632 0.035044622 -0.01456373
-0.031160487 0.036223054 -0.014963242
-0.024468314 0.0093176812 -0.014636914
-0.011433069 0.036050275 -0.014642946
0.042612638 0.011569539 -0.024500001
0.0063213399 0.028197575 -0.01780764
-0.0085225161 0.036933362 -0.014161203
0.016446862 0.013457845 -0.017821904
0.0092895105 0.036700651 -0.014307186
0.010622275 0.036296278 -0.014522973
0.01105254 0.036165729 -0.014115892
0.020343415 0.036538403 -0.015640428
0.031430107 0.036001768 -0.014732225
-0.0092827519 0.001548705 -0.018961115
-0.0080755614 0.037068971 -0.014919607
-0.012906435 0.0021676775 -0.015349189
-0.0067761252 0.037332717 -0.01466424
-0.0055206977 0.037456341 -0.01410924
0.013807952 0.028680071 -0.017948121
-0.0052692513 0.037265599 -0.015288374
-0.0026666138 0.037737403 -0.014447193
-0.0010131111 0.037900232 -0.014120044
-0.00073064631 0.037928049 -0.014689887
0.00037128635 0.037963435 -0.014412306
0.0013836391 0.037863746 -0.014504464
0.0025295098 0.037750904 -0.014486665
0.036634967 -0.011496427 -0.024499999
0.0048294384 0.037524417 -0.014076905
0.0058565447 0.037423272 -0.014063381
0.0040766504 0.024807554 -0.015945289
0.0074293441 0.037249088 -0.014649572
0.029590964 0.037511211 -0.014501628
0.030181549 0.037026498 -0.014107615
-0.028466314 0.038434248 -0.014381884
0.027825467 0.038960207 -0.014216514
0.028577857 0.038342699 -0.0145371
-0.027381005 0.039324991 -0.014633207
-0.026902836 0.039717443 -0.014351953
-0.0062961848 0.0066859508 -0.019338675
0.027459383 0.039260663 -0.014812138
-0.026289558 0.04011273 -0.014385495
-0.025302446 0.040640306 -0.014411191
-0.024726652 0.040948048 -0.014264172
-0.028440129 -0.035592645 -0.024499997
0.02547751 0.040546738 -0.014582189
0.026115926 0.040205531 -0.014692126
-0.024523111 0.041056834 -0.014443643
-0.023517162 0.041594479 -0.014361878
-0.041094527 -0.02445258 -0.017671425
0.022868589 0.041941121 -0.014115855
0.023166042 0.041782144 -0.014597265
0.0095693916 0.038260438 -0.017092567
-0.022528851 0.042122699 -0.014469589
-0.021353748 0.042750753 -0.014304007
-0.020986034 0.042947281 -0.01471697
0.021205511 0.042829979 -0.014474384
0.022462739 0.042158037 -0.014282676
-0.020619286 0.043143302 -0.014685363
-0.011319302 0.032759622 -0.014774781
0.019532282 0.043724269 -0.01429477
0.020476095 0.043219831 -0.014700741
-0.01879691 0.044117298 -0.014545873
-0.017521836 0.04460302 -0.014463244
-0.016829483 0.04481307 -0.014396206
0.017782429 0.044523962 -0.014338185
-0.01606467 0.045045108 -0.014657389
-0.02367818 0.038791224 -0.015827995
-0.014675405 0.045466587 -0.014898574
4.6705827e-06 0.033149362 -0.017069686
0.012984718 0.045979518 -0.014278969
0.013336488 0.045872796 -0.014587946
-0.0029531855 0.032414265 -0.014710354
-0.024238957 0.029029485 -0.019285187
0.016115604 0.045029651 -0.014504788
0.0072850734 0.034022763 -0.017331695
-0.011362508 0.046471678 -0.014338821
-0.02324158 0.029518794 -0.016636636
-0.0097370874 0.046964809 -0.014328085
0.010682422 0.046678007 -0.01466048
0.0015346677 0.038553629 -0.016047487
-0.0013725491 0.02253608 -0.017639711
-0.016278686 0.0031087832 -0.016112711
-0.0085015558 0.047162917 -0.014236419
-0.0074597159 0.0472655 -0.014170997
-0.0066632568 0.047343921 -0.014645915
0.00037669876 0.046283435 -0.01479678
-0.0041352818 0.04759283 -0.014372705
-0.028591897 -0.018035237 -0.019977614
-0.0022896323 0.047774561 -0.014007526
0.0020940457 0.047156148 -0.019634135
-0.01871584 0.010616638 -0.019551173
0.00033846596 0.047966674 -0.014175399
0.001247428 0.047877181 -0.014417268
0.0027015388 0.047734 -0.014711861
0.0036970126 0.047635984 -0.014417859
0.0043750736 0.047569226 -0.014525813
0.005270842 0.047481015 -0.014347216
0.0064844918 0.047361523 -0.014553265
0.007631843 0.04724855 -0.014221095
0.0087717259 0.047136314 -0.014727061
0.0095768357 0.047013432 -0.01487059
-0.0093994299 -0.047057781 -0.013244696
-0.0027743457 -0.044348679 -0.018970439
-0.018151125 -0.040444169 -0.015502593
-0.0067269444 -0.047337648 -0.013551982
-0.0056174044 -0.047446899 -0.013203587
0.0027290373 -0.046072111 -0.014862252
-0.00093202386 -0.023908231 -0.015029695
-0.002759374 -0.047728304 -0.013274489
-0.001722721 -0.047830377 -0.013628185
-0.012315718 -0.03390155 -0.01600397
0.00016891969 -0.047983371 -0.01331146
-0.022837676 -0.025646528 -0.015969051
0.0024739695 -0.047756411 -0.01376619
-0.0026063891 -0.04475788 -0.01375496
0.0049457746 -0.047513027 -0.013082855
0.015490079 -0.034600351 -0.014201438
0.0060639801 -0.047402926 -0.013245868
0.0071390993 -0.047297068 -0.013400413
0.0020588136 -0.042894088 -0.019157715
0.0094193481 -0.047061205 -0.013518455
-0.012613226 -0.046092227 -0.013529485
5.1689894e-05 -0.039466344 -0.015354487
-0.027813189 -0.014904123 -0.015729479
0.015404824 -0.027219273 -0.019236369
0.0099630803 -0.046896245 -0.013032863
0.010707236 -0.046670478 -0.013646923
0.011546339 -0.04641591 -0.013548829
0.0060900897 -0.046994794 -0.018344317
-0.016157778 -0.045016855 -0.013487185
-0.01558415 -0.045190886 -0.013404733
-0.014490528 -0.045522682 -0.013403235
-0.01396673 -0.045681588 -0.013256999
-0.012995746 -0.045976177 -0.013563106
0.013414966 -0.045848992 -0.013547862
0.011883751 -0.017991923 -0.015696656
0.015985928 -0.045068994 -0.013304872
0.016123297 -0.045027316 -0.013796484
-0.018678756 -0.044180445 -0.013421601
-0.017255675 -0.044683769 -0.013330529
-0.016335599 -0.044962909 -0.013323626
0.016644262 -0.044869266 -0.013606191
0.01749694 -0.044610575 -0.013639728
-0.020405691 -0.04325746 -0.013529927
-0.010527351 -0.0293993 -0.015713824
0.019567763 -0.043705303 -0.013602966
0.020544944 -0.043183029 -0.013653661
-0.022417489 -0.042182218 -0.013523269
-0.021117365 -0.042877093 -0.013157021
-0.020895485 -0.042995684 -0.013333649
0.020895282 -0.042995784 -0.013235076
0.02021724 -0.038687214 -0.015258166
0.022604184 -0.042082436 -0.013611458
-0.010153385 -0.034061808 -0.015670424
-0.023893509 -0.041393336 -0.013357007
-0.022971172 -0.041886296 -0.013710898
0.022973288 -0.041885167 -0.013955886
0.0012260955 -0.021266416 -0.016728036
0.024420392 -0.041111734 -0.013284141
-0.026494201 -0.040003352 -0.013179781
-0.025477335 -0.040546838 -0.013464976
-0.024666097 -0.040980414 -0.013527763
0.024816284 -0.040900145 -0.013085596
0.02560414 -0.040479064 -0.013317706
0.026317049 -0.040098041 -0.013644045
-0.016695786 -0.036289338 -0.014857768
-0.026989844 -0.039646029 -0.013658132
0.0092714261 -0.039057508 -0.017412893
0.027049834 -0.039596792 -0.013960443
-0.028798748 -0.038161404 -0.013786741
0.027850365 -0.03893977 -0.013607715
0.02842742 -0.03846617 -0.013488432
-0.029243933 -0.037796032 -0.013584817
-0.0080551896 -0.037075154 -0.013792248
0.0020203432 -0.036515385 -0.016138578
-0.013321098 -0.032242008 -0.013735423
-0.0053755287 -0.037470639 -0.013618995
-0.0045654108 -0.03755042 -0.013368795
-0.0032492005 -0.037680034 -0.01353732
-0.0027198466 -0.037732162 -0.013848669
-0.0011720981 -0.037884578 -0.013304453
-0.00093428686 -0.037907995 -0.013552976
0.00060619926 -0.037940305 -0.013523789
0.0015061658 -0.03785168 -0.013305383
0.0027973368 -0.037724525 -0.013802737
-0.0035376544 -0.027134728 -0.01660556
0.0045651719 -0.037550442 -0.013556751
0.0056082932 -0.037447721 -0.013482288
0.0066053271 -0.037349537 -0.013589628
0.0071114325 -0.037299693 -0.013150615
0.0081041362 -0.037060302 -0.013820124
0.016274562 -0.036204036 -0.013716631
-0.031284258 -0.036121473 -0.013668038
-0.0307748 -0.036539599 -0.013372585
-0.011274977 -0.036098242 -0.013616912
-0.010577331 -0.036309917 -0.013424573
-0.0093024522 -0.036696725 -0.013858026
-0.0086721061 -0.036887974 -0.013444222
0.0085577341 -0.036922678 -0.013581021
0.0063891187 -0.025222693 -0.017665265
0.010667434 -0.036282577 -0.019643769
0.011267237 -0.036100592 -0.013350628
0.031209132 -0.036183134 -0.013554293
-0.031961992 -0.035565235 -0.013474557
-0.014729628 -0.035006732 -0.013570285
-0.013421929 -0.035446841 -0.013558009
-0.012404716 -0.03575547 -0.013543559
-0.011671646 -0.035977889 -0.013954261
0.011766199 -0.0359492 -0.013443526
-0.018452758 -0.015520322 -0.018198781
0.013513273 -0.035419129 -0.013452319
0.014441724 -0.035122916 -0.013453025
0.031942844 -0.035580948 -0.013684265
0.032453917 -0.035161495 -0.01376982
-0.025320435 -0.016427848 -0.015558852
-0.032826707 -0.034855541 -0.01359922
-0.016365875 -0.034132324 -0.013428766
-0.015441673 -0.034626223 -0.013478553
0.014936532 -0.034896165 -0.013800589
-0.010884481 -0.012441388 -0.018993432
0.026602477 -0.025244458 -0.016098056
0.029848009 -0.03581154 -0.014096711
-0.027738895 -0.020607835 -0.015265586
-0.033923835 -0.033954307 -0.01372575
-0.029838707 -0.02838105 -0.014802998
-0.017368596 -0.033596471 -0.013697267
-0.0021895384 0.00092895329 -0.014994189
0.016711058 -0.033947859 -0.013461005
0.017334679 -0.033614598 -0.013229257
0.018312071 -0.033092283 -0.013303816
0.034012023 -0.033854466 -0.013803535
-0.03543067 -0.032125942 -0.013518333
-0.011433069 0.036050275 -0.014642946
-0.023166478 -0.028663415 -0.016065309
-0.018756948 -0.032854538 -0.013674337
0.018829966 -0.032815516 -0.013339954
-0.00033374256 -0.017585002 -0.016785352
0.02030402 -0.032027785 -0.013108146
0.034844339 -0.032840345 -0.01382331
0.020251334 0.0024349615 -0.014403674
-0.036077399 -0.031337958 -0.013786599
-0.035843417 -0.031623047 -0.013563885
-0.021393612 -0.031364862 -0.013374135
-0.020822378 -0.031750772 -0.013335001
0.0206689 -0.031832792 -0.013245688
0.021039017 -0.031635005 -0.013512116
0.035736009 -0.031753916 -0.013534922
-0.036843583 -0.030404422 -0.013606668
-0.02262985 -0.030350195 -0.013474017
0.036653429 -0.030636106 -0.013418233
-0.037740715 -0.029311329 -0.013390241
-0.024178147 -0.029079396 -0.01334177
-0.023851175 -0.029347766 -0.013609174
0.023557473 -0.029588828 -0.013676693
0.037660487 -0.029409083 -0.013186963
-0.026993355 -0.00329247 -0.015203624
-0.025104783 -0.028318837 -0.013583527
-0.021225428 -0.030118162 -0.01392931
0.024615433 -0.028720483 -0.013473609
0.017121419 -0.031237861 -0.016321883
0.038463708 -0.028430417 -0.013623578
-0.038688891 -0.026713667 -0.015308045
-0.030033169 -0.023016099 -0.021685963
-0.031333972 -0.010076532 -0.017055415
-0.025809307 -0.027740587 -0.013578162
0.025687113 -0.027840879 -0.01341885
0.02611246 -0.027491767 -0.013848031
0.038965441 -0.02781909 -0.013884755
0.039241567 -0.027482659 -0.01333618
-0.040190443 -0.026144154 -0.013540641
-0.0076558134 -0.047246195 -0.018275477
-0.027222214 -0.026440874 -0.013418042
-0.026935866 -0.026789751 -0.013896264
0.026843965 -0.026891366 -0.013210706
0.027389085 -0.026237566 -0.013481064
0.039874144 -0.026711285 -0.013576701
0.038686499 -0.024735494 -0.014729274
-0.040571995 -0.02543026 -0.013434771
0.0037955549 -0.018541373 -0.015726058
-0.027866662 -0.025655702 -0.013222362
0.013718145 -0.021289766 -0.016790193
0.040663257 -0.02525951 -0.013361529
-0.041188903 -0.024276007 -0.013453297
-0.040929068 -0.024762169 -0.013258798
-0.028407624 -0.02499661 -0.013094199
0.02878492 -0.024536924 -0.013370845
0.040818695 -0.024968678 -0.013639588
0.041088723 -0.024463451 -0.013354963
-0.035174128 -0.0060781897 -0.017617021
-0.029766019 -0.023341589 -0.013746742
0.004199957 -0.014952606 -0.017199341
-0.025802758 -0.02774596 -0.014488017
-0.025187775 -0.028252324 -0.015359881
-0.030464005 -0.022491192 -0.013495425
0.030315988 -0.022671526 -0.013448688
0.033973526 -0.027686609 -0.015325494
-0.042520713 -0.021784162 -0.013420835
-0.031362604 -0.021394201 -0.013328601
0.031368978 -0.021385256 -0.013615958
0.024973463 -0.0016037326 -0.016996667
-0.043465815 -0.020015847 -0.013901091
-0.042987213 -0.020911328 -0.013197786
-0.032136708 -0.020100195 -0.013208898
-0.031838901 -0.020657469 -0.013638893
0.031913716 -0.020517476 -0.01361216
0.032077219 -0.020211518 -0.013546432
0.043136112 -0.020632742 -0.013209932
-0.043709196 -0.019560475 -0.013659933
-0.032455333 -0.019503968 -0.013787372
0.032469623 -0.019477226 -0.013601083
0.043543309 -0.019870866 -0.013650606
-0.032919452 -0.018635483 -0.013341578
0.010962415 0.013842798 -0.016080845
0.033146463 -0.018210683 -0.013005231
-0.044587325 -0.017573573 -0.01336702
0.015060628 -0.013945295 -0.01656471
0.03350316 -0.01754321 -0.01337293
0.044612594 -0.017490268 -0.01335611
-0.045022413 -0.016139476 -0.013541116
-0.044326913 -0.017903393 -0.01627025
-0.034068894 -0.01648457 -0.013015235
-0.03390044 -0.016799793 -0.013132805
0.033879377 -0.016839214 -0.013857
0.034092732 -0.016439956 -0.013416449
0.044913005 -0.016500093 -0.013449675
-0.045173943 -0.01564 -0.013523364
-0.029101677 -0.020866446 -0.014274108
-0.04548765 -0.014605983 -0.014127471
0.022414688 -0.01460291 -0.014059309
-0.021866953 -0.020010296 -0.016993063
-0.03517719 -0.014310669 -0.01371453
0.035087492 -0.014566148 -0.013315925
0.025358422 0.012357797 -0.019047126
-0.045787033 -0.013619191 -0.013703841
-0.035497528 -0.013254866 -0.013640827
0.035318457 -0.013845067 -0.013345475
0.045790095 -0.013609097 -0.013651937
-0.046178371 -0.0123293 -0.013458918
-0.03578354 -0.012312202 -0.01319967
0.046151679 -0.012417272 -0.013493476
-0.046396397 -0.011610656 -0.013317431
-0.029249908 0.00071129203 -0.014571385
-0.03593741 -0.011805062 -0.013525553
0.035990849 -0.011628943 -0.013820777
0.036165401 -0.011053635 -0.013764279
0.046402078 -0.011591917 -0.013354206
-0.046717767 -0.010551368 -0.013663016
-0.036358412 -0.010417489 -0.013471426
0.036401182 -0.010276511 -0.013562949
0.040282372 -0.00088682043 -0.01422895
-0.040527638 -0.00051019009 -0.014890735
-0.026838956 0.0087157488 -0.014100167
-0.023992833 -0.018797591 -0.014686853
0.03670064 -0.0092895394 -0.013428133
0.046896659 -0.0099617131 -0.013139116
-0.047170103 -0.0084285643 -0.013290197
-0.03916195 -0.00097250537 -0.016982287
0.036837727 -0.0088377101 -0.013706609
0.037060238 -0.0081043467 -0.013570252
0.020549981 0.00055571151 -0.016296847
-0.04725064 -0.0076105976 -0.013656873
-0.037271503 -0.0073660221 -0.013478165
0.037239365 -0.0075139496 -0.013316853
0.047281284 -0.0072994316 -0.013252226
-0.047348417 -0.0066175871 -0.013541462
-0.034220871 -0.015263988 -0.014762455
0.037366301 -0.0064350609 -0.013252934
0.047360994 -0.0064898557 -0.013847396
-0.047433119 -0.0057573388 -0.013800229
-0.037450936 -0.0055756299 -0.013553019
0.035534084 0.0014421571 -0.015190799
0.047447905 -0.0056071696 -0.013650126
-0.02441819 -0.01320165 -0.017212093
-0.037557568 -0.0044927606 -0.013587134
0.03757406 -0.0043252902 -0.013513956
0.047548 -0.0045905802 -0.013640089
-0.047650676 -0.003547807 -0.013524028
-0.037669297 -0.0033582048 -0.0130415
0.03014379 0.0091478601 -0.01436788
0.043911144 0.0017880891 -0.01632005
-0.047748566 -0.0025536073 -0.01349052
-0.020642344 -0.0063681067 -0.014780723
0.04774081 -0.0026323516 -0.01320195
-0.047842797 -0.0015965945 -0.013344223
-0.037841052 -0.0016140938 -0.013557883
0.037899848 -0.0010170273 -0.013483704
0.047833219 -0.0016938753 -0.013700625
-0.046229802 -0.0082284166 -0.018858045
-0.03794333 -0.00057548145 -0.013438237
0.037950434 -0.00050333241 -0.013521089
0.047968484 -0.00032009094 -0.013023475
-0.033138841 0.0047626505 -0.014136958
-0.037975881 0.0002449514 -0.013417127
0.037935119 0.00065883086 -0.01339833
0.047934067 0.00066962838 -0.013470532
-0.04785521 0.0014705322 -0.013422794
-0.037853044 0.0014922933 -0.013414979
0.037863415 0.0013869945 -0.013681299
0.04783906 0.0016345223 -0.013478665
-0.047765307 0.0023836181 -0.013508954
-0.037709579 0.0029491698 -0.013634761
0.037751768 0.0025207335 -0.013265258
0.047744807 0.0025917678 -0.01368322
-0.022630958 0.020496424 -0.017364733
-0.037646435 0.0035903684 -0.013553246
0.037654068 0.0035128631 -0.013496278
0.021492511 0.012057628 -0.017202664
-0.047537934 0.0046928776 -0.013445579
-0.037563197 0.0044356352 -0.013220221
0.037584521 0.0042190771 -0.013726566
0.043746978 0.0085813468 -0.015271656
-0.04745423 0.0055429237 -0.013366206
-0.037441738 0.0056690415 -0.013484782
0.037424594 0.0058430959 -0.013075188
0.047464561 0.0054379948 -0.013989101
-0.046916194 0.0013468902 -0.014369197
-0.037364483 0.0064535532 -0.013826666
0.037352961 0.0065705678 -0.013348795
0.047371138 0.0063868398 -0.013900952
-0.047271319 0.0074006114 -0.013475731
-0.0029569915 -0.010405749 -0.020525362
0.029335171 0.013128037 -0.015652167
0.047292016 0.0071903942 -0.013579968
-0.047154818 0.0085837804 -0.01351653
-0.03162992 -0.0022500965 -0.014393213
0.036868226 0.0087371953 -0.013616344
0.037038043 0.0081775086 -0.013912736
-0.0086693447 -0.042485029 -0.024500001
-0.046957981 0.0097595919 -0.013369434
-0.036642313 0.0094817802 -0.013429102
0.036642328 0.0094817383 -0.013472319
0.046938185 0.0098248534 -0.013145012
0.047066689 0.0093466584 -0.013336881
-0.046725947 0.01052441 -0.013299835
-0.036298208 0.010615911 -0.013514454
0.036456462 0.010094332 -0.013650468
0.046696685 0.010620857 -0.013747689
-0.034204096 0.0050302059 -0.014676969
-0.035993867 0.01161899 -0.013440105
0.035960302 0.011729622 -0.013389113
0.036118306 0.011208851 -0.013068522
0.046429515 0.011501485 -0.013613994
-0.046186201 0.012303476 -0.013290419
-0.024670046 -0.011667592 -0.018292595
0.013949735 0.00047408542 -0.015583853
0.046163432 0.012378536 -0.013341666
-0.034466513 0.0078462008 -0.01489166
-0.03541467 0.013527969 -0.013663471
0.035449803 0.013412165 -0.013298454
0.045870297 0.01334473 -0.013739005
-0.0050918777 0.00035644835 -0.017134419
-0.035127915 0.014473072 -0.013984234
0.034881867 0.014963279 -0.0136189
0.03515844 0.014348664 -0.013958052
0.045544609 0.014418235 -0.013423952
-0.045211136 0.015517402 -0.013420472
-0.034538198 0.015606381 -0.013381304
0.034536541 0.015609477 -0.013753736
0.045267612 0.01533126 -0.013372147
-0.045061551 0.016010452 -0.013926077
-0.044916358 0.016489049 -0.013695843
-0.034219198 0.01620332 -0.013423488
0.033860512 0.016874511 -0.013793612
0.044921242 0.016472954 -0.013570877
0.0088631045 0.020066369 -0.014891297
-0.033531111 0.017490905 -0.013327505
0.026462102 0.0091309706 -0.016996322
0.044679686 0.017269135 -0.013516143
-0.044042151 0.018937513 -0.013988544
-0.033089831 0.018316645 -0.013462067
-0.0329386 0.018599644 -0.013737007
0.032975987 0.018529685 -0.013122382
0.020710867 0.022597257 -0.016356627
0.044284925 0.018467307 -0.01362291
-0.041447148 0.010327965 -0.016142372
-0.0044665653 0.025361083 -0.014221651
0.025664805 0.0101156 -0.014714168
0.043800257 0.019390102 -0.013708761
-0.043272808 0.020376971 -0.013558495
-0.041503258 -0.023687843 -0.01436626
-0.0048540961 0.025266256 -0.013809955
-0.031782892 0.020762289 -0.013585943
0.031823207 0.020686837 -0.013672582
0.032069717 0.020225551 -0.013162998
0.043256544 0.020407416 -0.013340033
-0.022498835 0.016706511 -0.01456715
-0.02156215 0.030199034 -0.014378762
-0.030994274 0.021845121 -0.013503628
0.031429529 0.021314826 -0.013970511
0.042730059 0.02139247 -0.01326673
-0.042123273 0.022527773 -0.013883453
-0.028070932 -0.0026261527 -0.016208461
0.030365594 0.022611087 -0.013538312
0.04196094 0.022831511 -0.013408469
0.042253599 0.022283934 -0.01319734
-0.041642498 0.023427323 -0.013912538
-0.030014675 0.023038633 -0.013555985
-0.029651759 0.023480801 -0.013465017
0.029661726 0.023468658 -0.013398798
0.04160225 0.023502635 -0.013433498
-0.02638085 0.03141297 -0.017702758
-0.029103003 0.024149384 -0.013672335
-0.028720036 0.024615979 -0.013244311
0.028706878 0.024632011 -0.013841369
0.040971529 0.024682717 -0.013316905
0.041266944 0.024129998 -0.013102226
0.0028075716 0.0041612145 -0.01633252
0.027689844 0.025871128 -0.013087353
0.028244657 0.025195165 -0.01332028
0.040648375 0.025287349 -0.013347325
-0.040199529 0.026127158 -0.013612362
-0.042067509 0.018295841 -0.01724368
-0.027176056 0.026497111 -0.01347737
0.026850644 0.026864138 -0.013241364
0.021507062 0.0079695228 -0.014744563
0.039830979 0.026750512 -0.013702547
0.040151589 0.026216861 -0.013617143
-0.039485857 0.027185008 -0.013451109
-0.026249466 0.027379315 -0.013258992
-0.025803318 0.0277455 -0.013393311
0.011092061 0.016786467 -0.015276998
0.039455667 0.027221791 -0.013671573
-0.021834847 0.024574924 -0.01558648
-0.025160924 0.028272761 -0.013360579
-0.024515726 0.02880232 -0.013185095
0.013468577 0.025956502 -0.014531898
0.018209307 -0.0097403787 -0.016330849
-0.037598498 0.029484609 -0.013320411
-0.027559798 0.022695173 -0.013537651
-0.025452279 0.027175954 -0.013544437
0.023428319 0.029694831 -0.013337262
0.024238225 0.029030085 -0.013658468
0.037499443 0.029605299 -0.013492541
-0.037052434 0.030149946 -0.013680851
-0.036629602 0.030665141 -0.013405765
-0.020613285 0.017123146 -0.014098004
-0.02193781 0.0309182 -0.01348365
0.022362715 0.030569455 -0.013166934
0.036927409 0.030302282 -0.013755113
0.037172005 0.030004265 -0.013779605
-0.0361448 0.031255834 -0.013350897
-0.036134019 0.031268969 -0.013563651
-0.021523803 0.031258006 -0.013276787
-0.020681329 0.031826153 -0.013416856
0.020754436 0.031787083 -0.013931302
0.021605069 0.031191304 -0.013652612
0.036296837 0.031070586 -0.013349951
-0.020174993 0.032096736 -0.013037501
-0.019490916 0.032462306 -0.013179508
-0.018630331 0.032922205 -0.013296241
0.018837389 0.032811552 -0.013672324
0.019201256 0.0326171 -0.013991846
0.03497459 0.032681644 -0.01312318
0.035199508 0.032407608 -0.013501503
-0.034100566 0.033746585 -0.013961408
-0.033972152 0.033903047 -0.013913853
-0.018189233 0.033157926 -0.013590368
-0.022487737 0.01735037 -0.014575266
-0.016846158 0.033875663 -0.013129732
0.017470481 0.033542026 -0.013760081
0.018128311 0.033190481 -0.013094559
0.033900179 0.033974502 -0.01318164
0.03419609 0.033630192 -0.013563414
-0.0096438359 0.0084530357 -0.018276118
-0.016370229 0.03413 -0.013516631
-0.015237155 0.034735512 -0.01372915
-0.014886755 0.034922767 -0.013476744
0.017893326 0.01500163 -0.016547143
0.016052237 0.034299936 -0.013333366
0.032787349 0.034887843 -0.013618309
0.033061683 0.034662686 -0.013527518
-0.032089829 0.035460316 -0.013292845
-0.031692922 0.03578607 -0.013448743
-0.00084819179 -0.0002573505 -0.015017185
-0.013564814 0.035403486 -0.013757833
-0.012231151 0.035808131 -0.013558776
0.011880333 0.035914578 -0.013491798
0.039772086 -0.024644727 -0.024499997
0.013503446 0.035422109 -0.013572162
0.014159193 0.035223149 -0.013578279
0.031930581 0.035591014 -0.013876581
-0.031327911 0.036085647 -0.013029231
-0.030589988 0.036691286 -0.013452681
-0.01126401 0.036101572 -0.013659276
-0.0097600557 0.037399344 -0.016093556
-0.0095530581 0.036620688 -0.013359866
0.0019314294 0.019446809 -0.013677727
0.0087129679 0.036875576 -0.013613075
0.0093409289 0.03668505 -0.013614836
0.010380912 0.03636951 -0.013586408
0.011307575 0.036088351 -0.013251679
0.030692577 0.036607087 -0.013694925
-0.030081509 0.037108608 -0.013541969
-0.029529437 0.037561711 -0.013543881
-0.0081600444 0.037043337 -0.013378975
-0.0077137551 0.037167735 -0.013127616
-0.0062807128 0.0373815 -0.013692734
-0.0052698646 0.037481043 -0.013466232
-0.0049322024 0.037514299 -0.013563642
-0.0037362091 0.037632074 -0.013735464
-0.0024655126 0.037757207 -0.013475105
-0.0016582378 0.037836704 -0.01371954
-0.00060384971 0.037940539 -0.013415113
0.00048520538 0.037952222 -0.013616813
0.0076453486 0.035110053 -0.014510634
0.004945253 0.019201111 -0.01564545
0.003470361 0.037658256 -0.01344466
0.0044137146 0.037565358 -0.013612908
0.0053503336 0.03747312 -0.013250185
0.0066101109 0.03734906 -0.013572114
0.016757287 0.019997971 -0.015226064
0.0080316477 0.037082296 -0.013381477
0.029123491 0.037894879 -0.013178155
-0.0062388433 0.0077205133 -0.01826348
-0.028388306 0.038498268 -0.013106645
-0.027814593 0.038969137 -0.013423583
0.027864838 0.038927894 -0.013928314
0.028493851 0.038411643 -0.013580319
-0.027746018 0.039025418 -0.013320914
0.026604351 0.039944485 -0.013770839
0.019846693 0.038679041 -0.014358535
-0.026007494 0.040263481 -0.013073297
-0.02534209 0.040619124 -0.013592324
0.024685467 0.040970061 -0.013520024
0.020563144 0.018490259 -0.015402067
0.026236627 0.040141016 -0.013842545
-0.024260739 0.041197062 -0.013130156
-0.023700152 0.041496679 -0.013557037
-0.031833593 0.020667404 -0.016205059
0.016265569 0.029296346 -0.013667556
0.024250738 0.041202407 -0.01367521
-0.022383204 0.042200547 -0.013550741
-0.021502143 0.042671442 -0.013514172
0.021996917 0.042407002 -0.013385499
0.0267413 0.038249228 -0.015268354
-0.019527381 0.043726884 -0.013572461
0.01942293 0.043782715 -0.013158462
0.020493191 0.043210693 -0.013256697
-0.018562814 0.044242412 -0.013719793
-0.016660027 0.044864479 -0.0133138
0.016954623 0.044775106 -0.013731821
0.017259341 0.044682659 -0.013334712
0.01840613 0.044304483 -0.013588217
-0.01522444 0.025227923 -0.016221795
-0.014365451 0.045560628 -0.013406875
0.015153747 0.028119368 -0.018798638
-0.012987357 0.045978721 -0.013428653
0.00272938 0.043911919 -0.015168684
0.014292596 0.045582727 -0.013336409
0.019535 0.039017137 -0.014540928
-0.0026957416 0.015821787 -0.013888305
-0.0113712 0.04646904 -0.013485702
-0.010051838 0.046869323 -0.01373741
-0.0097512994 0.046960499 -0.013618393
0.009855872 0.046928771 -0.01339563
0.010689061 0.046675995 -0.01352393
0.011548065 0.046415381 -0.013686903
-0.0094856285 0.047041096 -0.013704685
-0.02093835 0.033960752 -0.014828424
-0.0063297646 0.047376759 -0.013514872
-0.0054856651 0.047459871 -0.013532008
-0.004307115 0.047575913 -0.013713727
-0.0033327546 0.047671851 -0.01350466
-0.0028346002 0.047720902 -0.013320671
-0.0011312836 0.047888614 -0.013186079
-0.00056559592 0.047944315 -0.013679458
0.00067643856 0.047933392 -0.013791532
0.0013941851 0.047862731 -0.013602227
0.0023612829 0.047767498 -0.013404228
0.0034270748 0.047662567 -0.0134752
0.0043274751 0.047573909 -0.013862886
0.0051346989 0.047494426 -0.013368275
0.0063834749 0.047371469 -0.01323097
0.014801053 0.038230367 -0.015123438
0.008659537 0.047147363 -0.013375378
0.0094810426 0.047042489 -0.01314524
-0.0097356997 -0.043481894 -0.012833938
-0.0076666079 -0.04558792 -0.014526735
-0.0074981702 -0.047261715 -0.012287566
-0.0063586161 -0.047373917 -0.012553431
-0.0053016576 -0.04747799 -0.012471614
-0.0047078193 -0.047536455 -0.012529356
-0.0032797046 -0.04767707 -0.01246053
-0.0027779676 -0.047726475 -0.012171816
-0.0013909913 -0.047863036 -0.012487623
-0.00025443081 -0.047974952 -0.012110866
0.00041776206 -0.047958866 -0.012738885
-0.010255354 -0.033233464 -0.015655488
0.0024306136 -0.04776068 -0.012516648
0.0036111674 -0.047644436 -0.012467224
0.0043990035 -0.047566865 -0.012784328
0.0028918332 -0.045739878 -0.015412377
0.0063951928 -0.047370315 -0.012631552
-0.0031038476 -0.029562868 -0.01548501
0.010481331 -0.039303977 -0.013291927
0.0093056383 -0.047083743 -0.012284072
-0.012393836 -0.046158787 -0.01267021
-0.011772546 -0.046347275 -0.012700025
-0.010536708 -0.046722215 -0.012733581
-0.0097451974 -0.046962347 -0.012254903
0.0097730039 -0.046953909 -0.012229051
0.010929054 -0.04660318 -0.012757638
0.012417007 -0.046151761 -0.012373154
-0.015547434 -0.045202028 -0.012398104
-0.014424413 -0.045542739 -0.012672698
-0.013504976 -0.045821682 -0.01271208
0.013254737 -0.045897603 -0.012682406
0.0064444575 -0.030810419 -0.013185305
0.015667235 -0.045165684 -0.012430615
0.016141519 -0.045021791 -0.012648435
-0.018517587 -0.0442596 -0.012306619
0.01258816 -0.022540187 -0.016221812
-0.016696364 -0.04485346 -0.012376486
0.020403575 -0.025489684 -0.014888215
0.0026088329 -0.027750596 -0.014265491
0.018571848 -0.04423533 -0.012360876
-0.012875757 -0.043501042 -0.012770857
-0.024867311 -0.040329747 -0.015118372
0.01964904 -0.043661863 -0.012597919
0.02028406 -0.043322466 -0.012557535
-0.022413185 -0.042184524 -0.01247185
-0.024285525 -0.039117754 -0.0158184
0.020901186 -0.042992629 -0.01269091
0.021722738 -0.04255354 -0.012521358
0.022435216 -0.042172749 -0.012452947
-0.02047256 -0.042296823 -0.014171982
-0.023683175 -0.041505754 -0.012303218
0.0228022 -0.041976605 -0.012330429
0.023302253 -0.041709345 -0.012466243
0.024276158 -0.041188825 -0.012471167
-0.0028283279 -0.0041303467 -0.013411902
-0.02531435 -0.040633947 -0.012585902
-0.024880076 -0.040866051 -0.012038535
0.024858736 -0.040877458 -0.012546782
0.00086123403 -0.0036821123 -0.018747907
0.026276179 -0.040119883 -0.012233881
-0.029110791 -0.033293478 -0.013028098
-0.0062009189 0.0024711993 -0.018667076
0.026816189 -0.039774675 -0.012174128
0.031875841 -0.025641903 -0.012874588
-0.020569701 -0.037515596 -0.013505429
0.02785407 -0.038936734 -0.012280174
0.028444665 -0.038452018 -0.012802446
-0.030185342 -0.037023388 -0.012544776
-0.031064099 -0.034910228 -0.013636971
-0.0080455374 -0.037078083 -0.012668215
-0.0077954521 -0.037153959 -0.012353957
-0.0065927031 -0.037350778 -0.012642151
-0.0056567444 -0.037442949 -0.012678485
-0.004341661 -0.037572451 -0.012536086
-0.0033636452 -0.037668765 -0.01218999
-0.0026968941 -0.037734419 -0.012413343
-0.0013638622 -0.037865691 -0.012330715
-0.00076451025 -0.037924714 -0.012774311
0.00039609178 -0.037960991 -0.012769746
0.0015382719 -0.037848517 -0.012864938
0.0024739066 -0.037756376 -0.01219598
0.0039412822 -0.037611879 -0.012402983
0.0044413172 -0.037562635 -0.012429554
0.0056050732 -0.037448034 -0.012369616
0.006563032 -0.037353698 -0.012614076
0.035460126 0.020350112 -0.024500001
0.008246664 -0.037017059 -0.012817251
0.027136318 -0.037493013 -0.014588818
0.030128226 -0.037070263 -0.012963081
-0.031196589 -0.036193427 -0.012986811
-0.030579794 -0.036699645 -0.012452725
-0.011311824 -0.036087066 -0.012830333
-0.01055754 -0.036315918 -0.012380715
-0.0093058646 -0.036695689 -0.012411529
-0.0088627459 -0.036830135 -0.012913991
0.0088282367 -0.036840603 -0.012594229
0.0097076204 -0.036573794 -0.012474424
0.010694641 -0.036274321 -0.0123822
0.01145683 -0.03604307 -0.012619267
0.030323822 -0.036909729 -0.012955268
-0.032482252 -0.035138242 -0.01280004
-0.014472092 -0.035125025 -0.012585945
-0.013563946 -0.035403755 -0.012521341
-0.012448665 -0.035742138 -0.01248309
-0.011648534 -0.035984904 -0.012890822
0.0062085055 -0.015275866 -0.01545409
0.013423137 -0.035446476 -0.012375664
0.014538378 -0.035108101 -0.012117606
0.031498898 -0.035945311 -0.012567369
0.017805468 -0.011440206 -0.013164766
-0.03338578 -0.034396686 -0.012906982
-0.016365666 -0.034132436 -0.012357611
-0.015495921 -0.034597229 -0.012497663
-0.014854062 -0.034940235 -0.012387298
0.01483197 -0.034952044 -0.012518669
-0.005600133 -0.025023526 -0.015955154
0.032816291 -0.034864083 -0.012728703
0.033463169 -0.034333169 -0.012532324
-0.03428936 -0.033516552 -0.012573977
-0.018157303 -0.033174988 -0.012458054
-0.016722979 -0.033941489 -0.012601751
0.016682258 -0.033963248 -0.012168208
0.017358501 -0.033601869 -0.012270948
0.018259548 -0.033120349 -0.012872436
0.033930384 -0.033949714 -0.012643619
0.034327131 -0.033470534 -0.012398707
-0.035422981 -0.032135319 -0.012378501
-0.034919783 -0.032748427 -0.012981841
-0.020028319 -0.03217512 -0.012202239
-0.019804457 -0.03229475 -0.012529554
-0.018609406 -0.032933384 -0.012570989
0.019477753 -0.032469343 -0.012413166
0.020259745 -0.032051444 -0.012458785
-0.0013106025 -0.039513543 -0.024499999
-0.036346436 -0.031010156 -0.012443505
-0.035798244 -0.031678092 -0.01254619
-0.021327104 -0.031419452 -0.012538048
-0.020451095 -0.031949189 -0.012373742
0.020481823 -0.031932767 -0.012288598
0.021461971 -0.031308759 -0.012387658
0.035759341 -0.031725492 -0.012473124
0.012285107 -0.015711743 -0.017165381
-0.037081681 -0.030114315 -0.012953056
-0.026463855 -0.022680053 -0.012926079
0.022532295 -0.030430261 -0.012354022
0.033234276 -0.028291995 -0.024499997
0.023672316 -0.02154243 -0.012660133
-0.037819017 -0.029215924 -0.012584232
-0.023619501 -0.029537914 -0.012530332
0.023460638 -0.029668309 -0.012726506
0.024085846 -0.029155154 -0.012400281
0.019347638 -0.0023041521 -0.015185423
-0.038091324 -0.028812516 -0.014831166
-0.025262842 -0.028189108 -0.012262898
-0.024792638 -0.028575037 -0.012263777
0.024703087 -0.02864854 -0.012386257
0.025131173 -0.028297178 -0.012411794
0.038603812 -0.028259711 -0.012271604
-0.039135613 -0.027611753 -0.012816283
-0.026237972 -0.02738875 -0.012570811
-0.02558494 -0.027924739 -0.012296083
0.018636752 -0.0046604285 -0.01651183
0.026069771 -0.027526803 -0.012466429
0.039381653 -0.027311971 -0.012483913
-0.0402015 -0.02612346 -0.012068693
-0.039794043 -0.026806392 -0.012627132
-0.027305096 -0.026339892 -0.01254069
0.026938932 -0.026786013 -0.012206158
0.027289916 -0.026358392 -0.012326578
0.039786104 -0.026819177 -0.012604045
0.040129621 -0.026257955 -0.012268141
-0.040416095 -0.025721956 -0.01256649
0.027908113 -0.025605196 -0.012089772
0.0282639 -0.025171719 -0.012451505
0.040549342 -0.025472645 -0.012476744
-0.029141102 -0.024102967 -0.01256106
-0.028852981 -0.024454003 -0.012432522
0.030285954 -0.023274874 -0.01657217
0.029144198 -0.024099195 -0.012736882
-0.04170496 -0.023310445 -0.012572867
-0.029563088 -0.023588836 -0.01260282
0.029327361 -0.023876034 -0.012333374
0.041431304 -0.023822468 -0.012446813
-0.042168014 -0.022444077 -0.012960756
-0.041989535 -0.022778006 -0.012986964
-0.030553713 -0.022381887 -0.012515716
0.032222368 -0.021786172 -0.013846116
0.018267281 -0.016046509 -0.016538549
-0.042637073 -0.021566447 -0.01239344
-0.031410489 -0.02132811 -0.012435212
-0.030938262 -0.021913368 -0.0126698
0.03092598 -0.021928329 -0.012207512
0.031351615 -0.021397345 -0.012841102
0.037071034 -0.0037926042 -0.014505029
-0.043209977 -0.020494526 -0.012650158
-0.03215161 -0.020072309 -0.012852475
-0.03191068 -0.020523151 -0.012145031
-0.01397377 0.005807627 -0.014251377
0.032093391 -0.020181255 -0.012181085
0.043155603 -0.02059627 -0.012483763
-0.043677863 -0.019619105 -0.012434078
-0.032541167 -0.019343346 -0.012465281
0.032490566 -0.01943804 -0.012568412
0.043554183 -0.019850515 -0.012859127
-0.033127509 -0.018246148 -0.012313487
-0.032864925 -0.018737514 -0.012703454
0.033207256 -0.018096924 -0.01250357
0.030963216 -0.013150753 -0.013805583
-0.0045073368 -0.014784308 -0.018612063
-0.03352103 -0.017509764 -0.012937771
0.03360733 -0.017348282 -0.012457374
0.027923252 -0.024091877 -0.015578089
-0.045023307 -0.016136514 -0.012283861
-0.047186088 -0.0082662478 -0.023078809
-0.034216464 -0.016208429 -0.012511421
-0.033878468 -0.016840909 -0.012500795
0.0034475778 -0.037660494 -0.019289499
0.044914886 -0.016493876 -0.012568256
-0.045184128 -0.015606443 -0.012297466
-0.034538735 -0.015605377 -0.012668345
0.034649596 -0.015397925 -0.012469465
0.045235224 -0.015438013 -0.012354235
-0.045609519 -0.014204288 -0.012113611
-0.035147637 -0.014408084 -0.012572515
0.034892626 -0.014943151 -0.012380718
0.035131 -0.014391521 -0.012570693
0.045455329 -0.01471251 -0.012777444
-0.01202614 -0.023461668 -0.016465588
0.025783937 -0.0041817701 -0.01418335
0.045751691 -0.013735676 -0.012768111
-0.04618521 -0.012306738 -0.012427388
-0.045983382 -0.01297199 -0.012815291
-0.022170862 -0.0030610419 -0.014528257
-0.00089251809 -0.0042546866 -0.014763297
0.045995794 -0.012931088 -0.012499203
0.035162102 -0.017419601 -0.01432985
-0.046292834 -0.011952006 -0.012361987
-0.036056012 -0.011414178 -0.012684267
-0.036317904 -0.0059123393 -0.015519317
0.039303593 0.0048108054 -0.016451029
0.036146913 -0.011114574 -0.012523951
0.021670293 -0.016334582 -0.015943302
-0.046712436 -0.010568943 -0.012848029
-0.011584537 -0.0076476797 -0.016328353
0.036289349 -0.010645114 -0.012380004
0.046726227 -0.010523491 -0.012451081
-0.020371325 8.5570544e-05 -0.015026957
-0.046985716 -0.0096681686 -0.012589494
-0.026476627 -0.0086903954 -0.017119726
0.036667056 -0.0094002336 -0.012622086
0.046887044 -0.0099934069 -0.012571132
0.047097068 -0.0091703441 -0.012207685
-0.047168348 -0.0084463796 -0.012011892
-0.037091419 -0.0080015818 -0.012961267
-0.036937013 -0.0085104778 -0.012506448
0.036829662 -0.0088643022 -0.012621823
0.037090644 -0.0080041336 -0.012838067
0.047179505 -0.0083330516 -0.01248946
-0.047221128 -0.0079103615 -0.012392035
-0.037275717 -0.0073549477 -0.012703621
0.037254319 -0.0073803682 -0.012700131
0.047250193 -0.0076151858 -0.012461121
-0.047328517 -0.0068196612 -0.012453577
-0.037352763 -0.0065725157 -0.012619728
0.037354186 -0.0065580951 -0.012404852
0.010500228 -0.036333304 -0.021559326
-0.047474958 -0.0053324229 -0.012495438
0.040976308 -0.020406509 -0.024499997
0.012361892 -0.0095424782 -0.016541539
0.047449712 -0.0055888183 -0.012636993
-0.02007159 0.0019295326 -0.012823395
0.037544578 -0.0046246904 -0.012341594
0.047565702 -0.0044107949 -0.012406565
-0.04763706 -0.0036860821 -0.012596207
0.037623264 -0.0038256631 -0.012333205
0.047626488 -0.0037934433 -0.012350654
-0.047750629 -0.0025326952 -0.012521684
-0.037784077 -0.0021926081 -0.012195712
0.037749927 -0.0025394249 -0.012488361
0.0477226 -0.0028173064 -0.012471879
-0.047836386 -0.0016617021 -0.012841711
-0.037845533 -0.0015685621 -0.012864803
0.040369544 -0.0010795947 -0.015339803
0.047895156 -0.0010648054 -0.012247764
-0.0017212816 0.0076986551 -0.013078226
0.037951566 -0.00049182586 -0.012470672
0.047993064 -7.044286e-05 -0.012479361
-0.047952719 0.00048021972 -0.012507043
-0.037928462 0.00072643999 -0.012644994
0.037944816 0.00056040398 -0.012502782
0.047946401 0.00054433686 -0.012189707
-0.047853664 0.0014862453 -0.012206133
-0.037864394 0.0013770377 -0.012329591
0.032344073 8.6219807e-05 -0.017419264
0.047834013 0.0016857971 -0.012546223
-0.02920658 0.00059675053 -0.015706962
-0.037713528 0.0029090787 -0.012294416
0.03777102 0.0023252394 -0.012370802
0.047762852 0.0024085082 -0.012524523
-0.038204651 0.0020619426 -0.01255333
-0.037656106 0.0034921535 -0.012263662
0.037621696 0.003841602 -0.012602871
0.017457377 0.0091696689 -0.013162488
-0.047578689 0.0042789201 -0.012517409
-0.037577763 0.0042877104 -0.012559958
0.037821196 0.006222398 -0.015358808
0.047578625 0.0042795916 -0.012411639
-0.047443427 0.0056526749 -0.012392077
-0.037456572 0.0055183973 -0.012751259
-0.0020836871 0.01462009 -0.017007666
0.047457017 0.0055146613 -0.012567583
-0.04735909 0.0065092146 -0.012439733
-0.037370905 0.0063883485 -0.012604613
