# .PCD v0.7 - Point Cloud Data file format
VERSION 0.7
FIELDS x y z
SIZE 4 4 4
TYPE F F F
COUNT 1 1 1
WIDTH 1236
HEIGHT 1
VIEWPOINT 0 0 0 1 0 0 0
POINTS 1236
DATA ascii
-0.026501894 -0.02278699 -0.013070311
-0.037484691 -0.032000002 -0.0082654152
0.015902665 -0.0055611855 -0.020392707
-0.035690434 -0.032000002 -0.0083482694
-0.034394175 -0.032000005 -0.0084538013
-0.022096667 -0.020784616 -0.013075051
-0.030400923 -0.032000002 -0.0085838139
-0.029588219 -0.032000002 -0.008676975
0.0053628278 -0.0067217746 -0.016445199
-0.027889341 -0.032000002 -0.0086118504
-0.02611986 -0.032000002 -0.0081081707
-0.02529872 -0.032000002 -0.008372033
-0.024190692 -0.032000002 -0.0085549755
-0.022255896 -0.032000002 -0.0087190652
-0.00046911463 -0.017847367 -0.016133955
-0.019776709 -0.032000002 -0.0088607017
-0.01731047 -0.032000002 -0.0083791604
-0.016405702 -0.032000002 -0.0083561344
-0.013443831 -0.032000002 -0.011744846
-0.014501885 -0.032000002 -0.008536648
-0.015924782 -0.017060697 -0.01622095
-0.023890913 -0.0222877 -0.01955625
-0.011522627 -0.032000002 -0.0084807547
-0.010604946 -0.032000002 -0.0084080566
-0.0095693953 -0.031999998 -0.0085992664
-0.0086277518 -0.032000002 -0.0085022617
-0.0077405265 -0.032000002 -0.0085933078
-0.0063000238 -0.032000002 -0.0082531963
-0.0051461952 -0.032000002 -0.0083862804
0.0035096887 -0.03189186 -0.015991004
-0.0039351024 -0.032000002 -0.0086816512
-0.0023275311 -0.032000002 -0.0087535046
0.013229717 -0.013250088 -0.019537736
0.0059485026 -0.019806547 -0.015877847
0.00061537698 -0.032000002 -0.0082123438
0.001384787 -0.032000002 -0.0084454399
0.0026169848 -0.032000002 -0.0082675358
0.0035384148 -0.032000002 -0.0087197907
0.0043573859 -0.032000002 -0.0087211393
0.0082549546 -0.031881601 -0.012953516
0.0065491623 -0.032000002 -0.0087046344
-0.026188996 -0.027167568 -0.011352688
0.0085526519 -0.032000002 -0.008419442
0.011500869 -0.032000002 -0.0084511824
0.028364863 -0.02276459 -0.011101733
0.013438697 -0.032000002 -0.0087965578
0.014168056 -0.032000002 -0.0085558267
0.015384667 -0.031999998 -0.0089219725
0.016730327 -0.032000002 -0.0080597103
0.023429297 -0.024728237 -0.013140993
-0.005283705 0 -0.01451687
-0.037207659 -0.016306408 -0.030999999
0.020463254 -0.032000002 -0.0080790967
0.021465471 -0.032000002 -0.0086842338
0.022634339 -0.032000002 -0.0082632881
0.023304982 -0.032000002 -0.0083213029
0.024393255 -0.032000002 -0.0086777955
0.025371337 -0.032000002 -0.0080687804
0.027361561 -0.032000002 -0.0082958341
0.0035384758 -0.022521297 -0.014641294
0.029460121 -0.032000002 -0.0085958214
0.029452965 -0.022850052 -0.013352123
0.031849042 -0.032000002 -0.0085343644
0.032553092 -0.032000002 -0.0085668545
0.033449195 -0.032000002 -0.0086917039
0.034686968 -0.031999998 -0.0087320181
0.041398898 -0.022542626 -0.012115182
0.036534846 -0.032000002 -0.0082613621
0.037260775 -0.032000002 -0.0085998839
0.03868477 -0.032000002 -0.0085393526
0.039257832 -0.032000002 -0.0082113165
0.04434488 -0.029507577 -0.010230198
0.041268431 -0.032000002 -0.0082289651
0.043385684 -0.032000002 -0.0085411742
0.044519797 -0.032000002 -0.0085291713
0.036281284 -0.021361675 -0.013951368
0.046123337 -0.032000002 -0.0081187943
0.0473359 -0.032000002 -0.0083255125
0.048274688 -0.032000002 -0.0086103631
0.049394131 -0.032000002 -0.008236846
0.018204436 -0.032000002 -0.014255848
0.053264059 -0.027920712 -0.010863706
0.03930486 -0.032000002 -0.011248652
0.053524341 -0.032000002 -0.0085741011
0.054393895 -0.032000002 -0.0082817106
-0.011296014 -0.030783426 -0.022858005
0.035868101 -0.010666667 -0.011775611
0.029416159 -0.018877983 -0.014251334
0.052956212 -0.02283654 -0.009844603
-0.060000002 -0.030159196 -0.0084371828
0.059999995 -0.030335622 -0.0088845063
0.060000002 -0.03004466 -0.0088521224
-0.047223788 -0.02103322 -0.019898858
0.059999999 -0.029898528 -0.008043942
-0.059999999 -0.028328523 -0.008641649
0.021178268 -0.030219492 -0.016147476
0.060000002 -0.028352067 -0.0080128917
-0.059999995 -0.027298881 -0.0082780151
0.059999995 -0.027850207 -0.0082538016
0.060000002 -0.027417451 -0.0089384392
0.059999995 -0.026490411 -0.0086544417
0.060000002 -0.026591366 -0.0083407471
-0.060000002 -0.025082555 -0.0085630957
0.059999999 -0.025742438 -0.0088566625
0.060000002 -0.0254068 -0.0085514141
-0.059999999 -0.024743183 -0.0080771064
0.059999999 -0.024410959 -0.0085454015
0.036152966 -0.004260622 -0.019838791
-0.015806105 -0.023849029 -0.019724529
-0.04036301 -0.012699607 -0.019053189
0.059999999 -0.021407332 -0.0086230198
0.060000002 -0.021610253 -0.0084450739
-0.038951602 -0.012032524 -0.0141747
0.059999999 -0.020638928 -0.0089218989
-0.059999995 -0.019531552 -0.0087855607
0.059999999 -0.019681539 -0.0084629562
0.060000002 -0.019773606 -0.0085176174
-0.060000002 -0.018681094 -0.0083115995
0.060000002 -0.013716067 -0.0086787222
-0.059845075 -0.0050520571 -0.0093650827
0.059999999 -0.017494906 -0.0086547928
0.060000002 -0.017473998 -0.0087412065
-0.059999999 -0.016824108 -0.0083404258
0.059999995 -0.016471446 -0.0088722082
-0.060000002 -0.015544133 -0.0089027882
0.059999995 -0.015306402 -0.0085154017
0.041561209 -0.020580847 -0.030999998
0.059999999 -0.014439165 -0.0084367637
-0.042403851 -0.020211028 -0.019853607
0.059999999 -0.013176478 -0.0085521908
-0.059999995 -0.012177488 -0.0088618295
0.059999999 -0.012495276 -0.0085667651
-0.059999999 -0.011278138 -0.0085198972
0.029999997 -0.01487413 -0.010552981
-0.060000002 -0.010679194 -0.0084734065
-0.060000002 -0.0093627293 -0.0087275822
0.018223427 -0.015540553 -0.019588042
-0.059999999 -0.0081788469 -0.008874706
0.059999999 -0.0085443724 -0.0083852457
0.025832351 0.0048349923 -0.011762459
-0.050481174 -0.032000002 -0.021571184
0.059999999 -0.0073004374 -0.0084922304
-0.059999995 -0.0063017458 -0.0080982111
0.059999999 -0.0063906847 -0.0084159998
0.036162931 -0.0087040393 -0.021170495
-0.059655249 0.0038684751 -0.012413493
0.036295079 0.0011126201 -0.016046602
0.060000002 -0.0050405879 -0.0088271983
-0.059999999 -0.0042152735 -0.0084925033
-0.059999999 -0.0036979562 -0.0084907915
0.059999999 -0.003522343 -0.0084192101
-0.059999995 -0.0022133631 -0.0082839038
0.059999995 -0.0024194652 -0.0086284392
0.060000002 -0.0026021488 -0.0084928749
-0.029702768 0.0090067713 -0.015174459
0.059999999 -0.0012964597 -0.0088064186
0.060000002 -0.0015105312 -0.0083571393
-0.045879036 0.015250108 -0.014894458
0.050063528 0.0083844084 -0.014875039
0.033732235 0.032000002 -0.016430248
-0.020000001 0.00219388 -0.014644626
0.059999999 0.0016498258 -0.0085827075
0.060000002 0.0014788285 -0.0082612876
-0.059999999 0.0071274247 -0.0088180462
0.059999999 0.0024200114 -0.0083499812
0.060000002 0.0024177022 -0.0085700452
-0.033947617 0.010549008 -0.0091385487
-0.060000002 0.0043817661 -0.0084171658
0.059999999 0.0011947505 -0.011524037
-0.059999995 0.01522303 -0.0099953916
-0.03443449 -0.010155347 -0.01954478
0.030611824 -0.013404461 -0.01912402
-0.060000002 0.0063351816 -0.0086783003
0.059999995 0.0063831527 -0.0083800256
0.060000002 0.0067263423 -0.0086151585
0.059999999 0.0073222918 -0.0084081385
0.060000002 0.0077187503 -0.0080838781
-0.060000002 0.0084288977 -0.0087576266
0.059999999 0.0084213912 -0.0087205358
0.060000002 0.0083822981 -0.0089325774
-0.036638409 -0.0043732636 -0.015186489
0.059999999 0.0097321169 -0.0089353211
0.060000002 0.0099225156 -0.0083983717
-0.059999999 0.0107459 -0.0084074084
0.018942837 -0.0025637574 -0.019947076
0.0185716 0.016673405 -0.023400798
-0.042661503 0.0018302503 -0.014033724
-0.053665705 -0.0096055511 -0.014383266
0.04069839 0.0012821245 -0.0098972702
-0.059999999 0.013481971 -0.0085184909
0.057617202 0.0058565 -0.019515373
0.060000002 0.013632481 -0.0081413602
-0.060000002 0.014788147 -0.00851354
0.026346337 0.010068315 -0.030999999
0.060000002 0.014477965 -0.0087972926
-0.059999999 0.01549316 -0.0080853701
0.059999995 0.015671378 -0.0087203253
0.060000002 0.015876211 -0.0081838937
-0.059999999 0.016427955 -0.0084543433
0.059999999 0.016172823 -0.008664893
0.036546335 -0.032000002 -0.016846843
-0.020253824 0.005206042 -0.015846679
0.059999999 0.017288703 -0.0084935687
-0.059999999 0.018063083 -0.0086489972
0.059999995 0.018779136 -0.0089418367
-0.060000002 0.019405972 -0.0082758311
0.059999995 0.019143656 -0.0085101277
-0.059999995 0.02038564 -0.0081751682
0.059999999 0.020450279 -0.0086580738
-0.060000002 0.021651633 -0.0086240359
0.059999999 0.021717679 -0.00836014
0.060000002 0.021366224 -0.0089593492
-0.059999999 0.022637321 -0.008474011
0.060000002 0.022415455 -0.0082404008
-0.059999995 0.023346094 -0.008806413
0.059999999 0.023194287 -0.0083051631
-0.059999995 0.024283236 -0.0082903951
0.059999999 0.024292044 -0.0081223287
-0.059999999 0.012348494 -0.023375124
-0.060000002 0.025562394 -0.0087469425
0.059999995 0.025837237 -0.0086665573
0.024650389 -0.024480503 -0.030999999
-0.060000002 0.0086989244 -0.013490662
0.059999999 0.026617115 -0.0083747962
0.060000002 0.026711095 -0.0085354131
-0.058841974 0.023303004 -0.014246041
0.059999999 0.027633395 -0.0084720328
0.060000002 0.027626799 -0.0086098472
-0.059999995 0.028793866 -0.0087278709
0.059999999 0.028295901 -0.0082811527
0.059999999 0.02923774 -0.0082692448
-0.053420745 0.026579842 -0.0099149812
0.059999999 0.030686561 -0.008623465
-0.04020597 0.023636926 -0.013978184
-0.043616608 0.031999998 -0.008411251
0.031681262 0.031999998 -0.0088066505
0.041548997 0.031999998 -0.0080681443
0.044333387 0.031999998 -0.0081828013
-0.0067219492 0.0097237397 -0.02179043
-0.058353178 0.032000002 -0.008513337
-0.057968162 0.032000002 -0.0083810473
-0.032685116 0.016797451 -0.014264308
-0.055914085 0.032000002 -0.0085771438
-0.054505795 0.032000002 -0.0087652467
-0.032171514 0.019200001 -0.0089009013
-0.052663073 0.032000002 -0.008584423
-0.05145137 0.032000005 -0.0085729845
-0.05060745 0.032000002 -0.0088246809
-0.049698256 0.032000002 -0.0087236725
-0.047378138 0.032000005 -0.008558156
-0.046699028 0.032000002 -0.0085322745
-0.035744555 0.022700377 -0.015435386
-0.044416815 0.032000005 -0.0086110933
-0.043448113 0.032000002 -0.0085819447
-0.042487282 0.032000002 -0.0086997757
-0.04106462 0.032000002 -0.0080631291
-0.039436996 0.032000002 -0.0087439679
-0.038336664 0.032000002 -0.0085900957
-0.037764695 0.032000002 -0.0086892284
-0.03672833 0.032000002 -0.0085249124
-0.035576776 0.032000002 -0.0083398279
-0.034165364 0.032000002 -0.0081746336
-0.033228919 0.032000002 -0.0085773449
-0.032599304 0.032000002 -0.0088240951
-0.031509373 0.032000002 -0.0087524448
-0.030392995 0.032000002 -0.0083082281
-0.029580858 0.032000002 -0.0085223643
-0.02748942 0.032000002 -0.0086128293
-0.026585663 0.032000002 -0.008840262
-0.02564369 0.032000002 -0.0087434305
0.0037325285 0.031070907 -0.015064097
-0.022877252 0.032000002 -0.0084475223
-0.021797512 0.032000002 -0.0086293574
-0.020611137 0.032000002 -0.008458076
-0.019610818 0.032000002 -0.0082443459
-0.018617906 0.032000002 -0.0085726306
-0.017071273 0.032000002 -0.0089580873
-0.016562531 0.032000005 -0.0085207969
-0.015483622 0.032000002 -0.0088089565
0.0023724008 0.012431314 -0.030999999
-0.013496773 0.032000002 -0.0082138758
0.011585351 0.016839467 -0.012390117
0.022276592 0.0236947 -0.030999999
-0.0018925493 0.022533983 -0.015913341
-0.011219529 0.028385278 -0.011025053
-0.0081658531 0.032000002 -0.0089009888
-0.0070822658 0.032000002 -0.0087385383
-0.0067436267 0.032000002 -0.0081805838
-0.0054986835 0.032000002 -0.0084624616
0.059999999 0.010657052 -0.025491416
-0.0024960618 0.032000002 -0.0088466164
0.0026520793 0.032000002 -0.013536002
-0.0049835802 0.024654135 -0.01415294
0.00047467949 0.032000002 -0.0086950539
0.0016203023 0.032000005 -0.0083851581
0.002549238 0.032000002 -0.0085216518
0.0032668673 0.032000002 -0.0082723619
0.018337116 0.02516979 -0.0096510407
0.005696537 0.032000002 -0.0084690191
0.0066413754 0.032000002 -0.008614745
0.010008409 0.010666667 -0.014231868
-0.0013819439 0.019200001 -0.011801538
0.0096355667 0.032000002 -0.0084311282
0.010370804 0.032000002 -0.0081735505
0.025429258 -0.032000005 -0.023083717
0.013355636 0.032000002 -0.008638449
0.020535994 0.024230076 -0.015880482
0.020777423 0.012968523 -0.019700242
0.016795605 0.032000002 -0.0084752627
0.017393073 0.032000002 -0.0087079601
0.018140703 0.032000002 -0.0089284135
0.027369961 0 -0.0099215582
0.021390449 0.032000002 -0.0083131697
0.022459287 0.032000005 -0.0084378859
0.0025687511 0.025381543 -0.01009723
0.020231878 0.025839804 -0.016029842
0.0189831 0.016232608 -0.01959992
0.026465712 0.032000005 -0.0089044943
0.027556211 0.032000002 -0.0084536066
0.02888722 0.032000002 -0.0089858072
0.02958666 0.032000002 -0.0087215621
0.030126933 0.032000002 -0.0083412221
0.016400099 0.032000002 -0.011655564
0.032447491 0.032000002 -0.0083022704
0.046950027 0.014779557 -0.017896842
0.034703657 0.032000002 -0.0080244048
0.0018539168 0.0078806365 -0.020287542
0.036109328 0.032000002 -0.008444773
0.010345279 -0.0017662271 -0.014796399
0.040257111 0.032000005 -0.0086630005
0.041166447 0.032000002 -0.0089237466
0.04266734 0.032000002 -0.0083032176
0.043594532 0.032000002 -0.0084824357
0.009775158 0.01958216 -0.015818972
0.024079721 0.0041919751 -0.016962146
0.045153338 0.032000005 -0.0086999368
0.047776263 0.032000002 -0.0085582044
0.048438922 0.032000002 -0.0088195736
0.049746808 0.032000002 -0.0086163236
0.050749235 0.032000002 -0.0085931541
0.051536158 0.032000002 -0.0085929399
0.052205961 0.032000002 -0.0084252246
0.053813051 0.032000002 -0.0085924147
0.021202371 0.016530387 -0.013993658
0.056328356 0.025373448 -0.010766685
0.056643821 0.032000002 -0.008175876
0.046894934 0 -0.01450965
0.052592672 0.019200001 -0.01441929
0.05932096 0.032000002 -0.0086735375
-0.029387034 -0.032000005 -0.0077792467
-0.022466863 -0.032000005 -0.0070384843
0.060000002 0.01494854 -0.021627039
-0.017566785 -0.032000005 -0.0074929264
-0.011187568 -0.032000005 -0.0075685149
-0.024125576 -0.0085187498 -0.018621018
0.0036905874 -0.032000005 -0.0071083354
0.0070108809 -0.032000005 -0.0072676083
0.01335847 -0.032000005 -0.0070682811
0.030758895 -0.02347992 -0.030999999
0.024133231 -0.032000005 -0.0076771677
0.027997721 -0.032000005 -0.0072673969
0.028964676 -0.032000005 -0.0076474128
0.041302662 -0.032000005 -0.0079198293
0.047312483 -0.032000005 -0.0074955728
0.0443528 -0.019432317 -0.030999999
0.053140938 -0.032000005 -0.00722476
0.05522811 -0.032000005 -0.0070664668
0.058539033 -0.032000005 -0.007353805
0.059844583 -0.032000005 -0.0074444702
-0.059751969 -0.031789601 -0.0074480912
-0.040333807 -0.032000002 -0.011586223
-0.057444453 -0.032000002 -0.0072210552
-0.05620113 -0.022684509 -0.012100638
-0.054485451 -0.032000002 -0.0075561241
-0.05340454 -0.032000002 -0.0075877681
-0.053137157 -0.028382484 -0.013268321
-0.051349878 -0.032000002 -0.0073671313
-0.042960342 -0.016664056 -0.01345322
-0.049903907 -0.032000002 -0.0075530023
-0.048688304 -0.032000002 -0.0077609122
-0.04747425 -0.032000005 -0.007292964
-0.046248637 -0.032000002 -0.0073232725
-0.034417745 -0.016847193 -0.013342611
-0.044485372 -0.032000005 -0.0075978171
-0.043503068 -0.032000002 -0.0071043759
-0.024919553 -0.032000002 -0.013940215
-0.021514591 -0.021292752 -0.012766223
-0.039372902 -0.032000002 -0.0079292459
-0.038567968 -0.032000005 -0.007720246
-0.037491716 -0.032000002 -0.0074263937
-0.036531139 -0.032000002 -0.0076812096
-0.015824361 -0.030712299 -0.019489702
-0.034222629 -0.032000002 -0.0074984673
-0.033425972 -0.032000002 -0.0075771562
-0.032509301 -0.032000002 -0.0071946708
-0.030506622 -0.032000002 -0.0075631277
0.053538844 0.032000002 -0.017396882
-0.027460109 -0.032000002 -0.0075827157
-0.026606839 -0.032000002 -0.007953017
-0.026197739 -0.0086369272 -0.018865902
-0.02457696 -0.032000002 -0.0075125643
-0.012770875 -0.025745939 -0.017173527
0.018626167 -0.0038705627 -0.015828831
-0.021743188 -0.032000002 -0.0078415796
-0.019590091 -0.032000002 -0.0077479267
-0.018526455 -0.032000005 -0.0075748144
-0.017726418 -0.031999998 -0.0076308795
-0.016854445 -0.032000002 -0.0076730167
-0.015384142 -0.032000002 -0.007602701
-0.014525994 -0.032000002 -0.0074889949
-0.01399336 -0.032000002 -0.0071467375
0.021152716 -0.031999998 -0.01305619
-0.011713099 -0.032000002 -0.0077769589
-0.0011063647 -0.032000005 -0.010114996
-0.0098211206 -0.032000002 -0.0072487583
-0.0084004197 -0.032000005 -0.0075996332
-0.0078400858 -0.032000002 -0.0074764825
0.024856802 -0.032000002 -0.014793154
-0.0059149265 -0.032000002 -0.0074662277
-0.0045679165 -0.032000002 -0.0073480792
0.0017905785 -0.022857143 -0.010682048
-0.0025190567 -0.032000002 -0.0075160204
-0.0015787035 -0.032000002 -0.0071457485
-0.00056735333 -0.032000002 -0.0073026069
0.00084785279 -0.031999998 -0.0076115942
0.0012055915 -0.032000002 -0.0071555404
0.00064451643 -0.024777671 -0.019114306
0.0035222187 -0.032000002 -0.0073428834
0.0327622 -0.015850987 -0.0084657837
0.0063029462 -0.032000002 -0.0074384958
0.0072041992 -0.032000002 -0.0075483141
-0.0070132422 -0.024130238 -0.013362953
0.0096866358 -0.0070521748 -0.018777311
0.01393425 -0.012218215 -0.013318358
0.011105736 -0.032000002 -0.0078042322
0.012600616 -0.032000002 -0.0075131631
0.013288263 -0.032000002 -0.0076503586
-0.02223162 -0.011201724 -0.0092278589
0.016309664 -0.031999998 -0.0075984965
-0.03266089 -0.028626954 -0.031000001
0.018443173 -0.032000002 -0.0076976353
0.019595172 -0.032000002 -0.0073406654
0.020218177 -0.032000002 -0.0077936435
0.021203279 -0.032000002 -0.0073744417
0.0042650066 -0.02621909 -0.015502318
0.011108754 -0.028588399 -0.013442963
0.024590455 -0.032000005 -0.0075491248
0.025434833 -0.032000002 -0.0077171614
0.026115838 -0.032000002 -0.0079346076
0.027505154 -0.032000002 -0.0073115067
-0.0046900865 -0.0018022219 -0.019446805
0.029518554 -0.031999998 -0.0077626915
0.030811977 -0.032000002 -0.0079342611
0.027771039 -0.012099709 -0.019298807
0.032941032 -0.032000002 -0.007780063
0.03340425 -0.032000002 -0.0072029121
0.0089562759 -0.028730862 -0.019426722
0.033363894 -0.028893381 -0.012960255
0.044231951 -0.030152291 -0.0086941496
0.038525201 -0.032000002 -0.0072768144
0.017573629 0 -0.012820287
0.040160161 -0.032000002 -0.0070361458
0.041241195 -0.032000002 -0.0072745606
0.042783339 -0.032000002 -0.0073442273
-0.0082640592 -0.027744964 -0.018151607
0.04164125 -0.026464563 -0.011415712
0.046159767 -0.028882548 -0.015286252
0.046493903 -0.032000002 -0.0074570524
0.026126016 -0.027263314 -0.0096840858
0.048968442 -0.032000002 -0.0072045317
0.048868787 -0.010978444 -0.015959186
0.050575238 -0.032000002 -0.0076317652
0.051900435 -0.032000002 -0.0074079484
0.019601746 -0.010851838 -0.028465502
0.044042066 -0.031466514 -0.012210662
0.04275962 -0.0186454 -0.019485122
0.055226266 -0.032000002 -0.0074184886
0.056101669 -0.032000002 -0.007772706
0.051014178 -0.015133093 -0.019185439
0.058532171 -0.032000002 -0.0073906151
0.059840705 -0.031842794 -0.0074964049
0.060000002 -0.031802524 -0.0070331236
0.059999995 -0.030399013 -0.0078167645
-0.043935619 -0.024657767 -0.011289033
0.059999995 -0.029392211 -0.0078449789
0.0097172298 -0.01085769 -0.019336106
-0.060000002 -0.028111756 -0.0078466227
0.059999999 -0.027914327 -0.0076528429
0.060000002 -0.027347412 -0.0073164315
-0.059999999 -0.026674321 -0.0073222434
0.059999999 -0.026442036 -0.0072446391
-0.059999995 -0.025600143 -0.0075238473
0.04291603 -0.020844903 -0.011533029
0.060000002 -0.025714118 -0.0076443357
-0.059999999 -0.024741676 -0.0076354579
0.059999999 -0.02485284 -0.0077545121
0.060000002 -0.024741929 -0.0071430267
-0.059999995 -0.023965586 -0.0074726567
0.060000002 -0.023273204 -0.0070534479
-0.030787464 -0.003173545 -0.019338369
0.059999995 -0.022977136 -0.0076412628
-0.059999999 -0.021478599 -0.0075528724
0.059999999 -0.021175737 -0.0076082596
0.023159599 -0.017242584 -0.019218575
-0.060000002 -0.019981656 -0.0070388801
0.059999995 -0.019291155 -0.0076008476
-0.033079151 0.006709002 -0.01692909
0.059999999 -0.018799994 -0.0075937081
-0.060000002 -0.017919904 -0.007584095
-0.059999999 -0.016333941 -0.0073450571
0.059999999 -0.016649079 -0.0073890034
0.060000002 -0.016511064 -0.0071785147
-0.060000002 -0.015191684 -0.0071179867
-0.033850014 -0.012351858 -0.013306601
0.016747991 0.00049417093 -0.015455088
0.060000002 -0.014887509 -0.0077017685
-0.059999995 -0.01336314 -0.0078032739
-0.059999999 -0.01248479 -0.0076835463
0.059999995 -0.01287158 -0.0072471076
0.060000002 -0.012923993 -0.0076865973
-0.051172536 0.0079787914 -0.010482978
0.060000002 -0.011501393 -0.0073981211
-0.059999995 -0.010727767 -0.0078132935
-0.059999999 0.0064340048 -0.024613272
0.059999999 -0.0090574697 -0.0076152142
0.060000002 -0.0099271545 -0.0079059862
-0.052822441 -0.0084592169 -0.011338982
0.059999995 -0.0084413923 -0.0074235434
0.060000002 -0.0081372168 -0.007286083
-0.022855327 -0.014531336 -0.015637502
0.059999995 -0.0075988425 -0.007373828
0.059999999 0.00041676065 -0.023634855
-0.060000002 -0.0063594747 -0.0074289255
0.059999999 -0.0064192526 -0.0079506142
-0.060000002 -0.0057887258 -0.0078449622
0.059999995 -0.0055969628 -0.0074982801
0.060000002 -0.0054965611 -0.0071589584
-0.056638505 -0.011275375 -0.012963507
0.059999999 -0.0044535296 -0.007468658
0.0061210729 -0.032000002 -0.01781675
-0.059999999 -0.00342537 -0.0074373744
0.059999999 -0.0031317822 -0.0074889697
-0.060000002 -0.002349922 -0.0077011329
0.059999995 -0.002761683 -0.0072056539
-0.027219333 0.0011695861 -0.015076442
0.039818816 -0.010959781 -0.015302606
-0.060000002 -0.00052265887 -0.0076284362
0.059999995 -0.00067619095 -0.0075710216
0.060000002 -0.00080576167 -0.0079267826
-0.060000002 0.00062957266 -0.0074389619
0.060000002 0.00083611999 -0.0078774672
-0.021472389 -0.01161233 -0.013260215
0.059999995 0.0013042307 -0.0073967259
0.060000002 0.0011649281 -0.0078197196
-0.034037404 0.010848442 -0.014153892
0.059999999 0.0025717183 -0.0075950176
0.060000002 0.0020403825 -0.0078196824
-0.059999999 0.003394922 -0.0074024685
0.059999995 0.0035911528 -0.0071212635
0.060000002 0.0035826601 -0.0073347157
-0.060000002 0.0049183508 -0.0076398589
0.059999995 0.0043971213 -0.0077811875
-0.059999995 0.0057268664 -0.0070577422
0.059999999 0.0055919937 -0.0077789999
-0.036239248 0.014282702 -0.015172778
0.059999995 0.0065388419 -0.0074239913
-0.059999999 0.007331688 -0.0073524714
0.00014013611 -0.0011680969 -0.019168194
-0.059999995 0.0084426776 -0.0074419053
0.059999999 0.0085179061 -0.0076963338
0.060000002 0.0085704848 -0.0076199844
-0.059999995 0.011636419 -0.013484975
0.043934632 -0.0084609184 -0.017676346
0.060000002 0.0090322727 -0.0076371105
-0.042857144 0.0059057865 -0.010071695
0.059999995 0.010849915 -0.0078489399
-0.060000002 0.011542692 -0.0075576114
0.039964385 0.021498054 -0.0140513
0.060000002 0.011283474 -0.0071542049
-0.020000003 0.015932098 -0.012912227
0.059999995 0.012228202 -0.0077329855
-0.041018318 0.00094780046 -0.014111528
0.045600116 -0.0090937093 -0.010029968
-0.060000002 0.014076413 -0.0074957712
0.059999995 0.014658161 -0.0075853625
0.060000002 0.014689136 -0.0073569473
-0.043447413 -0.0078424197 -0.012245014
0.059999999 0.015489192 -0.0075195963
-0.060000002 0.016119853 -0.0076818005
0.059999999 0.016664751 -0.0075411303
-0.059999995 0.017672915 -0.0075243195
0.059999999 0.017563697 -0.0076308534
-0.059999995 0.018434742 -0.0077276099
0.059999999 0.018019333 -0.0071413843
-0.059999999 0.019532733 -0.0075173113
0.036206454 0.015735637 -0.015133411
-0.059999995 0.020430768 -0.0075978367
0.020874728 0.026450483 -0.016286228
-0.022922706 0.025299594 -0.013816103
0.059999999 0.021009549 -0.0072203716
-0.059999999 0.022672195 -0.0070526381
0.060000002 0.022313986 -0.0072850073
-0.059999999 0.023274921 -0.0072407979
0.059999995 0.023689747 -0.0074782758
0.060000002 0.023953259 -0.0073028589
-0.059999999 0.024480568 -0.0074264184
0.060000002 0.024596862 -0.0074477284
-0.060000002 0.025539979 -0.007526319
0.059999995 0.025068749 -0.0074149091
0.060000002 0.02583842 -0.007875191
-0.059999999 0.026649889 -0.007220204
0.060000002 0.026889738 -0.0079084337
0.054644059 0.02917714 -0.013627737
0.060000002 0.027528595 -0.0077710953
-0.059999999 0.028735388 -0.0073760105
-0.059999999 0.029461782 -0.0074364333
0.059999999 0.029862272 -0.0076154573
0.060000002 0.029584773 -0.0079637822
-0.059999999 0.030194059 -0.0073766424
0.04820925 -0.00097680837 -0.015467633
-0.0580796 0.0177605 -0.0090410467
-0.056938063 0.031999998 -0.0074279974
-0.054717213 0.031999998 -0.0077919154
-0.047468543 0.031999998 -0.0074816211
0.0153731 -0.02520046 -0.021933462
0.059999999 0.031499971 -0.0075066364
-0.045728385 -0.0055424385 -0.030999999
-0.058543094 0.032000002 -0.0072515635
-0.057372153 0.032000002 -0.00747649
-0.056418508 0.032000002 -0.0075037116
-0.055464383 0.032000002 -0.0074564265
-0.054575812 0.032000002 -0.0074884295
0.019541476 0.016550368 -0.017322592
-0.05249995 0.032000002 -0.0072359284
-0.01391343 0.0075907791 -0.019089308
-0.013637772 0.01379163 -0.013764954
-0.049721017 0.032000002 -0.007476517
-0.047518179 0.032000002 -0.0074533331
-0.033130996 0.029709511 -0.01249675
-0.045975991 0.032000002 -0.0079721706
-0.044625811 0.032000002 -0.007651025
-0.026730595 0.024863148 -0.01229828
-0.017804245 0.032000002 -0.014848299
-0.041487813 0.032000002 -0.0075927554
-0.040554956 0.032000002 -0.0073697548
-0.029489277 0.019200001 -0.009965702
-0.038610578 0.032000002 -0.0078416839
-0.037475526 0.032000005 -0.00752815
-0.036599465 0.032000002 -0.0076916702
-0.035350293 0.032000002 -0.007726287
-0.033494741 0.032000005 -0.0074678082
-0.032195915 0.032000002 -0.0071693081
-0.0049222037 0.010666667 -0.012110159
-0.030583676 0.032000002 -0.0074201929
-0.039170634 -0.018521894 -0.030999999
-0.02884889 0.032000002 -0.0075083217
-0.034570836 -0.030468365 -0.030999999
-0.026473686 0.032000002 -0.0071113645
-0.025470765 0.032000002 -0.0075832559
-0.01921404 0.029042616 -0.011583062
-0.014443989 0.010666667 -0.010852299
-0.025886353 0.016914994 -0.019325605
-0.0010738722 0.031171437 -0.010556281
-0.019462317 0.032000002 -0.010920912
-0.019695152 0.032000002 -0.0075059361
-0.00024254834 0.018256975 -0.011921934
-0.017502984 0.032000002 -0.0076290211
-0.016209252 0.032000002 -0.007659636
-0.015329958 0.032000002 -0.0072333603
-0.014211102 0.032000002 -0.0075855725
-0.013424478 0.032000002 -0.0077502313
-0.012536576 0.032000002 -0.0073576747
-0.01153019 0.032000002 -0.0075936578
-0.0050590853 0.024100395 -0.012214317
-0.0093881367 0.032000002 -0.0075906566
-0.0085182954 0.032000002 -0.0072074486
-0.0075548552 0.032000002 -0.0073498078
-0.0063253148 0.032000002 -0.0075471699
0.003655951 0.0035555556 -0.013858943
-0.0048148544 0.032000002 -0.0075252787
-0.0023524556 0.032000002 -0.010025917
-0.0025253659 0.032000002 -0.0077022687
-0.0016863607 0.032000002 -0.0078756399
-0.00050864683 0.032000002 -0.0076404503
-0.029055376 0.0030315202 -0.010306353
-0.0017680526 0.016826719 -0.013138959
0.0033430108 0.032000002 -0.0075292047
0.0043478077 0.032000002 -0.0076592974
0.0056853006 0.032000002 -0.0076055499
0.0063489377 0.032000002 -0.0071331337
-0.019959388 0.032000002 -0.01872186
0.0094726598 0.032000005 -0.0075269975
0.011540915 0.032000002 -0.0073106196
0.022097131 0.03094222 -0.0075465054
0.013514332 0.032000002 -0.0074813478
0.014693065 0.032000002 -0.0075459024
0.015388826 0.032000002 -0.0071338033
0.014719385 0.019200001 -0.010380504
0.017951453 0.032000002 -0.0077342391
0.018586477 0.032000002 -0.007445883
-0.00045052171 -0.021398954 -0.030999999
0.056289837 -0.021910878 -0.030999999
0.021649806 0.032000002 -0.007007244
0.027590401 0.032000002 -0.012558101
0.023478463 0.032000002 -0.0077129891
0.02317675 0.032000002 -0.013983178
0.025637092 0.032000002 -0.0076828804
0.026074132 0.032000002 -0.0075783366
0.015353527 0.031333335 -0.013442207
0.034963824 0.031447552 -0.0075244005
0.029356284 0.032000005 -0.0070604002
0.0050543752 0.0076830164 -0.019243393
0.031531081 0.032000002 -0.007291412
0.032681294 0.032000002 -0.0078219362
0.033517376 0.032000002 -0.0073040947
0.034691948 0.032000002 -0.0071842754
0.035567939 0.032000002 -0.0072729867
0.060000002 -0.020199982 -0.029647771
0.037582532 0.032000002 -0.0070316456
-0.0022613034 0.024549093 -0.01948199
0.03902154 0.032000002 -0.0079063606
-0.0099358261 0.01117482 -0.017379763
0.041714028 0.032000002 -0.0076937284
0.041531246 0.032000005 -0.0084499363
0.05175129 0.013719247 -0.014594991
0.044568479 0.032000002 -0.0079548024
0.042517088 0.028689593 -0.019194933
0.047455482 0.032000002 -0.0071686693
0.048979349 0.032000002 -0.0076400628
0.049434513 0.032000002 -0.0072210017
0.050581545 0.032000002 -0.0073259696
0.051140666 0.032000002 -0.0077687241
0.052995175 0.032000002 -0.0072397767
0.055557206 0.012820078 -0.014329014
0.054290485 0.032000002 -0.0073072985
0.055469997 0.032000002 -0.0076340367
0.038236856 0.032000002 -0.013879842
0.047960356 0.025221443 -0.011462542
0.044606488 0.032000005 -0.01098193
-0.032726936 -0.032000005 -0.0067032427
-0.01459025 -0.032000005 -0.0065627662
0.0009438768 -0.032000005 -0.0063008666
0.0072448105 -0.032000005 -0.0067955544
0.010023305 -0.032000005 -0.0064769154
0.025890755 -0.032000005 -0.0065406216
0.03696657 -0.032000005 -0.0062702065
0.05711104 -0.032000005 -0.006828743
-0.059660994 -0.031817999 -0.0064657941
-0.058506221 -0.032000002 -0.0063796015
-0.027408121 -0.025601139 -0.010475606
-0.054485165 -0.032000002 -0.0063222945
-0.05355414 -0.032000002 -0.0061856322
-0.052322146 -0.032000002 -0.0062131984
-0.051407844 -0.032000002 -0.0065708114
-0.050404318 -0.032000002 -0.0066088578
-0.049734525 -0.032000002 -0.0064705797
-0.048700742 -0.032000002 -0.0065762354
-0.047385514 -0.032000002 -0.0066248784
-0.046651058 -0.032000002 -0.0065175546
-0.045396738 -0.032000002 -0.0065677296
-0.044893976 -0.032000002 -0.0066311937
-0.043336906 -0.032000002 -0.006030221
-0.026960436 -0.032000005 -0.010234261
-0.041668408 -0.032000002 -0.0068292851
-0.040432967 -0.032000002 -0.006892846
-0.027976653 -0.032000002 -0.0070177964
-0.016915295 -0.02847743 -0.014745999
0.021564111 -0.024673298 -0.030999999
-0.045534562 -0.0079998411 -0.022828331
0.0053090691 -0.0032210797 -0.02444653
-0.034551043 -0.032000002 -0.0061178911
-0.032307681 -0.032000002 -0.0067856787
-0.04959739 0.012547271 -0.030999999
-0.02629783 -0.021771729 -0.010508476
-0.028837029 -0.032000002 -0.0067682145
-0.027517777 -0.032000002 -0.0063476316
-0.026662393 -0.032000002 -0.0066014002
-0.025671745 -0.032000002 -0.0062558064
-0.024488438 -0.032000002 -0.0062831072
-0.023167703 -0.032000002 -0.0065070409
-0.011920879 -0.010666667 -0.011215098
-0.021614909 -0.032000002 -0.0067517394
-0.019237671 -0.032000002 -0.0063791694
-0.018420331 -0.032000002 -0.0065942183
-0.017860843 -0.032000002 -0.0063679619
-0.047410995 -0.011590007 -0.030999999
0.0022036836 -0.031529762 -0.015994918
-0.014689156 -0.032000002 -0.0063151773
-0.024144821 -0.024018619 -0.012659715
-0.012301393 -0.032000002 -0.0068599284
-0.011667732 -0.032000002 -0.006397502
-0.010409018 -0.032000002 -0.006479702
0.010446677 -0.010329551 -0.026291948
-0.016538769 -0.015999999 -0.0094616562
0.059999995 0.0067514414 -0.018178839
-0.0065520648 -0.032000002 -0.0068669105
0.0030132509 -0.032000002 -0.0078956848
-0.00460445 -0.032000002 -0.0064422879
-0.0034499336 -0.032000002 -0.006128246
-0.0099690026 -0.024557065 -0.0081642438
-0.0016765036 -0.032000002 -0.0061179297
-0.0094777457 -0.032000002 -0.014303735
0.00061341841 -0.031999998 -0.0068973061
0.0018007122 -0.032000002 -0.0061152838
0.0034396581 -0.032000002 -0.006524635
0.015844939 -0.018640364 -0.014380395
-0.0059511601 -0.0092900675 -0.015777534
0.006678672 -0.032000002 -0.0063439049
0.0073865522 -0.031999998 -0.0066898726
-0.025857067 -0.015757527 -0.0089524891
0.013139343 -0.032000002 -0.0097012352
0.01069112 -0.032000002 -0.0063677728
0.011362228 -0.032000002 -0.0065434608
0.0077850781 -0.029366165 -0.01256818
0.01304448 -0.032000002 -0.006522431
0.014400505 -0.032000002 -0.0063155042
-0.01654157 -0.032000002 -0.0071544866
0.0041835955 -0.013218259 -0.010351261
0.017076194 -0.032000002 -0.0062641366
-0.0093316752 0 -0.007591249
0.019422734 -0.032000002 -0.0066382368
0.020434849 -0.032000002 -0.0060886424
0.012830957 -0.030436486 -0.0091358293
0.022854561 -0.032000002 -0.006429472
0.023260113 -0.032000002 -0.006344981
0.024615061 -0.032000002 -0.006134022
0.0046222229 -0.011293169 -0.018798757
-0.025630822 0.0073805247 -0.030999999
0.027706739 -0.032000002 -0.0063775051
0.028864484 -0.032000002 -0.0064481692
0.029685363 -0.031999998 -0.0063844034
0.0017333673 -0.021333335 -0.011166706
0.0017151944 -0.019407846 -0.014657791
0.032318376 -0.032000002 -0.0065977434
0.03338436 -0.032000002 -0.0066172443
0.034749396 -0.032000002 -0.006517027
0.035317924 -0.032000002 -0.0065395785
0.022377562 -0.029646775 -0.01058355
0.037100684 -0.032000002 -0.0065886006
0.038889736 -0.032000002 -0.0069912495
0.03967838 -0.032000002 -0.0064831013
0.040361304 -0.032000002 -0.0065865517
0.034793578 -0.022822123 -0.0089539317
0.042526647 -0.032000002 -0.0064017978
0.018882971 -0.032000002 -0.018132191
0.045487083 -0.032000002 -0.0063627316
0.036256149 -0.020500448 -0.012514139
0.047424138 -0.032000002 -0.0065580495
0.049504802 -0.032000002 -0.006999013
0.050641529 -0.032000002 -0.0066375993
0.052944206 -0.032000002 -0.0066006668
0.053640798 -0.032000002 -0.006361153
0.055589333 -0.032000002 -0.0062390631
0.056633368 -0.032000002 -0.0062737307
0.050636388 -0.025882734 -0.016657721
0.060000002 -0.03140166 -0.006586506
-0.059999999 -0.03065322 -0.0063635404
0.059999995 -0.030174831 -0.0064686411
0.060000002 -0.030454636 -0.0068076262
-0.060000002 -0.029037923 -0.0063177943
0.059999999 -0.029616565 -0.0065704444
0.060000002 -0.029884685 -0.0067067463
-0.040555432 -0.028930832 -0.011510241
0.059999999 -0.028660376 -0.0061110985
-0.059999999 -0.027801052 -0.0062936242
0.059999999 -0.027433734 -0.0066533368
-0.059999999 -0.026870914 -0.0067647202
0.059999999 -0.026285365 -0.0069849985
0.060000002 -0.026548661 -0.0064947722
-0.055173304 -0.012909113 -0.018533925
0.059999995 -0.025522534 -0.0062934216
0.060000002 -0.025292456 -0.0065239579
-0.060000002 -0.024359025 -0.006282141
0.059999995 -0.024722567 -0.0063541392
0.060000002 -0.024274457 -0.0062308991
-0.059999999 -0.023420129 -0.0066217361
0.060000002 -0.023021623 -0.0060871625
-0.059999999 -0.022490233 -0.0061267754
-0.060000002 -0.02135851 -0.0064509041
0.059999999 -0.021447396 -0.0063941027
-0.045715421 -0.011792518 -0.0075741215
0.059999999 -0.020401431 -0.0066603268
0.060000002 -0.020943094 -0.0060076173
-0.059999999 -0.01985234 -0.0061027845
0.059999995 -0.019920733 -0.0063010678
0.060000002 -0.019061722 -0.006502701
-0.010257528 0.0047456203 -0.018248301
0.059999999 -0.018693997 -0.0064664599
-0.059999995 -0.017412733 -0.0063640717
0.059999995 -0.017855331 -0.0062309224
-0.059999999 -0.016398383 -0.006635
0.059999999 -0.016353954 -0.0061054281
-0.060000002 -0.015920553 -0.0061694207
0.059999995 -0.015690237 -0.0063258824
0.060000002 -0.015084222 -0.0060113305
0.059999995 -0.014362121 -0.0069648158
0.060000002 -0.014420684 -0.0063549615
-0.060000002 -0.013475141 -0.0067210644
0.059999995 -0.013222985 -0.0062866881
0.060000002 -0.013129327 -0.0065436773
-0.059999995 -0.012163464 -0.0064484999
0.059999995 -0.01228869 -0.0066439547
0.060000002 -0.012570889 -0.0063153878
-0.059999999 -0.011580291 -0.0067745969
0.034217112 -0.018539404 -0.017554885
0.005837081 -0.019480282 -0.01654101
-0.041480429 -0.015759794 -0.014759732
-0.055338375 -0.0091770813 -0.012727529
0.059999995 -0.0096079791 -0.0064208554
-0.059999999 -0.0085539119 -0.0062408149
0.044927869 -0.0026623055 -0.01877844
0.060000002 -0.0086015547 -0.006421607
-0.059999995 -0.007334237 -0.0064592697
0.060000002 -0.0070620179 -0.0069922786
-0.059999999 -0.0068363594 -0.0068507316
0.03488145 -0.0067179608 -0.012795716
-0.033414699 0.0090973098 -0.015948175
0.029434856 -0.0086203925 -0.014593368
-0.052753173 0.0076589263 -0.012452913
0.059999995 -0.0044381893 -0.0065561207
-0.0493032 -0.003448891 -0.0097175604
0.059999999 -0.0034511932 -0.0065792957
-0.059999999 -0.0025205365 -0.006115234
0.059999999 -0.0028561708 -0.0062300693
-0.038698241 0.0160552 -0.030999999
-0.060000002 -0.0016783942 -0.0064796945
0.059999999 -0.0011497959 -0.0061847866
0.060000002 -0.0014603548 -0.0068658451
0.0090053035 0.0028350079 -0.019847384
0.059999999 -0.00071895495 -0.0067263562
0.060000002 -0.0009798808 -0.006065215
-1.8626451e-09 0.0091284215 -0.0081047341
-0.059999995 0.0016291523 -0.0063317604
0.02389881 -0.00091575831 -0.016449571
0.060000002 0.0011061169 -0.0062578386
-0.059999999 0.0025782748 -0.006630633
0.060000002 0.0028026002 -0.0064087119
-0.059999999 0.0036207945 -0.0064762468
0.059999995 0.0036482811 -0.0062510194
-0.050435152 0.0001928617 -0.013631061
0.059999995 0.0043181418 -0.0065113939
0.060000002 -0.011823281 -0.018234666
-0.0093815122 0.011852035 -0.030999999
-0.035886995 0.032000002 -0.011495225
0.046720229 -0.0067950264 -0.012161772
-0.060000002 0.0063402541 -0.0067829816
0.059999995 0.0062721595 -0.0066519096
-0.031246105 0.0080412431 -0.01564005
0.02215825 0.021299925 -0.017980874
0.054929927 -0.0098200329 -0.01730234
-0.060000002 0.0084215626 -0.0062950542
0.059999995 0.0084897988 -0.0064612236
0.060000002 0.0085382573 -0.0069923312
-0.059999995 0.0091909496 -0.0065616667
0.059999995 0.0096227303 -0.006599416
0.060000002 0.0096483137 -0.0065602241
-0.060000002 0.010568146 -0.0061838068
0.060000002 0.010795301 -0.0065919873
-0.060000002 0.011744117 -0.0064751753
0.059999999 -0.0044826623 -0.0087948404
-0.059999999 0.012558049 -0.0062920926
0.060000002 0.012576692 -0.0065815784
-0.060000002 0.013611324 -0.0065873927
0.036920018 -0.0011804551 -0.014653854
0.060000002 0.013971601 -0.0063689966
-0.056214921 0.0089927744 -0.0099758944
0.059999995 0.014404615 -0.0064797718
-0.060000002 0.015497942 -0.0062528909
-0.052485641 0.032000005 -0.02642015
0.060000002 0.015018349 -0.0068243868
-0.059999999 0.016657511 -0.0064035016
0.059999995 0.016604293 -0.0063070403
-0.059999999 0.017631538 -0.006516261
0.059999999 0.0045860256 -0.0067820675
0.060000002 0.017105084 -0.0065700659
-0.059999999 0.018835668 -0.0061647301
0.059999995 0.018538641 -0.0068520815
0.039722241 -0.032000002 -0.010689006
0.059999995 0.019823186 -0.0068226028
-0.059999995 0.020541169 -0.0065380083
0.044368595 -0.028898476 -0.030999999
-0.035821415 0.0036236334 -0.0096851178
0.059999999 0.021977723 -0.0062117837
-0.060000002 0.022899318 -0.0060666674
-0.060000002 0.023511812 -0.0064145322
0.059999995 0.023603961 -0.0066842474
-0.060000002 0.02458678 -0.0065018521
0.059999999 0.024429824 -0.0062685017
0.060000002 0.024550669 -0.0062082978
0.029822422 0.0098972144 -0.013806896
-0.052706767 0.027670506 -0.0083694113
0.059999995 0.026026886 -0.0067083891
-0.060000002 0.027489495 -0.0064734938
0.059999995 0.027712969 -0.0064997403
0.058046449 -0.032000005 -0.0080256155
0.041503739 -0.026503051 -0.031000001
0.059999995 0.028233722 -0.0069754981
0.060000002 0.028653592 -0.0060963412
-0.059999995 0.029639769 -0.0063083041
0.059999999 0.029059656 -0.0062680133
0.060000002 0.029480431 -0.0066296118
-0.027622545 0.015552936 -0.018718285
0.059999995 0.030444698 -0.0063507096
-0.060000002 0.025558352 -0.0073920633
-0.058839716 0.031999998 -0.0066407342
-0.053591315 0.031999998 -0.0065120133
-0.048521496 0.031999998 -0.006206736
-0.042461727 0.031999998 -0.0067027439
0.025736449 0.031999998 -0.006244801
0.040937617 0.010327308 -0.030999999
0.037515298 0.031999998 -0.0069753444
0.059999999 0.031141091 -0.006771985
-0.059405971 0.032000002 -0.0061515975
-0.058391977 0.032000002 -0.0064850599
-0.057348814 0.032000005 -0.0066359001
0.010057885 0.020736828 -0.022548519
-0.055141371 0.032000005 -0.0062902509
-0.053761169 0.032000002 -0.006187967
-0.043016329 0.016000001 -0.0070629343
-0.00017883256 0.032000002 -0.0085315062
-0.035443977 0.023440037 -0.01472402
-0.049430929 0.032000002 -0.0065805661
-0.039026573 0.032000002 -0.01381371
-0.047698382 0.032000002 -0.0060926536
-0.046379626 0.032000002 -0.0065046083
-0.045532372 0.032000002 -0.0065831831
-0.044687051 0.032000002 -0.0063951751
-0.059999995 -0.0044248579 -0.022157688
-0.042288415 0.032000005 -0.0067036347
-0.041394584 0.032000005 -0.0068020364
-0.040313371 0.032000005 -0.0067259758
-0.033121139 0.016199859 -0.014582438
-0.038688876 0.032000005 -0.0065502422
-0.026532764 0.030533323 -0.01135133
-0.035394322 0.010666667 -0.0087054325
-0.035436302 0.032000002 -0.0064993529
-0.034662422 0.032000002 -0.0066023157
-0.033615224 0.032000002 -0.0065982449
-0.037507318 0.021602631 -0.012599979
-0.0315306 0.032000002 -0.0067018382
-0.030468374 0.032000002 -0.0061433832
-0.029865436 0.032000002 -0.0066214963
-0.028729182 0.032000002 -0.0064361859
-0.027801692 0.032000002 -0.0065000365
-0.026547017 0.032000002 -0.0067480579
-0.025516912 0.032000002 -0.0065830611
-0.009856048 0.032000002 -0.009626911
0.003189069 0.02256665 -0.030999999
-0.0014274514 0.01527032 -0.014798524
-0.021774258 0.032000002 -0.0061151404
-0.022437183 0.016188733 -0.014772999
-0.010996467 0.017418714 -0.018850226
-0.018712161 0.032000002 -0.0066931453
-0.017773334 0.024886722 -0.011291159
-0.01648638 0.032000002 -0.0061050756
-0.017546957 0.030520311 -0.0093990052
-0.01513947 0.017298788 -0.018709553
-0.013728286 0.032000002 -0.0066345045
-0.012769886 0.032000002 -0.0066233892
0.01021242 0.021504864 -0.014881286
-0.010597741 0.032000002 -0.006307397
-0.0094418768 0.032000002 -0.0066857277
-0.023623481 0.031761818 -0.014574304
-0.0074732155 0.032000002 -0.0064603048
-0.0156678 0.0017846599 -0.018631557
-0.0052277218 0.032000002 -0.0065759858
-0.0041536707 0.032000002 -0.0065710377
0.00192674 0.021333842 -0.014498777
-0.022626869 0.00069583301 -0.01897856
0.0032163593 0.010666667 -0.0073066689
0.023760904 0.018277992 -0.018589152
0.00064194389 0.032000002 -0.0067468379
0.0025588339 0.032000002 -0.0064548776
-0.015068932 0.019827716 -0.014589775
0.0059299357 0.026626794 -0.010758302
0.005448834 0.032000002 -0.0066745207
0.010994513 0.01876701 -0.013122976
-0.013986766 0.011276146 -0.018992076
-0.012960138 0.032000002 -0.01270343
0.0056411955 0.009024404 -0.0084979404
0.010420281 0.032000002 -0.0068818815
0.020583607 0.030516744 -0.015700143
0.026087428 0.025720246 -0.018850179
0.028126476 0.014370552 -0.015644377
0.014699543 0.032000002 -0.0063115722
0.015761655 0.032000002 -0.0066335993
0.016275676 0.032000002 -0.0067001875
0.024639679 0.027492618 -0.014494321
0.0061780568 0.016000001 -0.011359131
0.021132713 0.019200001 -0.0099535529
0.036471706 0.0087934528 -0.018659202
0.0088935019 0.02510649 -0.010569444
0.023303268 0.032000002 -0.0068227164
0.034638327 0.02559413 -0.018599859
0.02546766 0.032000002 -0.0067695612
0.026594652 0.032000002 -0.0068267817
0.027693497 0.032000002 -0.0069748238
0.015234868 0.024074351 -0.012372356
0.029718369 0.032000002 -0.00663679
0.030606855 0.032000002 -0.0064846538
0.031618275 0.032000005 -0.0065684989
0.0019561897 0.024152145 -0.012176344
0.033296339 0.032000002 -0.0060829557
0.034438934 0.032000002 -0.0069317883
0.035695352 0.032000002 -0.0065500722
0.033161171 0.032000002 -0.013077357
0.0085668964 0.013434383 -0.014618486
0.038338274 0.032000002 -0.0063099102
0.039562933 0.032000002 -0.0062688701
0.038139317 0.032000002 -0.011384882
0.011723896 0.011988832 -0.0227907
0.044614378 0.032000002 -0.0061555775
0.045669265 0.032000002 -0.0064320639
0.046380095 0.022192379 -0.007555265
0.046561979 0 -0.014280515
0.012298933 0.015888687 -0.0067904321
0.04936013 0.032000002 -0.0067688813
0.045544073 0.013743557 -0.018809842
0.046682902 0.029312756 -0.012724558
0.023424782 0.02774795 -0.018908
0.053660601 0.032000002 -0.0064304876
0.054231234 0.032000002 -0.0063708476
0.01761958 0.024480263 -0.031000003
0.036528431 0.019461509 -0.014562795
0.057163283 0.032000002 -0.0062232427
0.056342494 0.032000002 -0.01114137
0.059432723 0.032000002 -0.0066479212
0.059999999 0.02392688 -0.023414973
-0.033846799 -0.032000005 -0.0056655142
-0.032471471 -0.032000005 -0.0056821569
-0.023861798 -0.032000005 -0.0053963461
-0.017711036 -0.032000005 -0.0055877226
0.0077043083 0.015547772 -0.030999999
0.0097356886 -0.032000005 -0.0053138537
0.014673894 -0.032000005 -0.0054677092
0.017596291 -0.032000005 -0.0059240945
0.042212065 0.024719033 -0.030999999
0.036145724 -0.032000005 -0.005619321
0.041161463 -0.032000005 -0.0053938562
0.043611486 -0.032000005 -0.0058871405
0.037409335 -0.032000005 -0.013577284
0.050040767 -0.032000005 -0.0051618097
0.05794749 -0.032000005 -0.0052630687
-0.059709854 -0.031763148 -0.0056175734
-0.058633983 -0.032000002 -0.0052480055
-0.017561685 -0.032000002 -0.0082374476
-0.056250025 -0.032000002 -0.005612412
-0.055486836 -0.032000002 -0.005625831
-0.054819454 -0.032000002 -0.0053126458
-0.009314226 -0.024228424 -0.018023387
-0.02165499 -0.0091334051 -0.016943309
-0.051426593 -0.032000002 -0.0056143953
-0.05043675 -0.032000002 -0.0052570971
-0.049954496 -0.032000002 -0.0059165088
-0.048651379 -0.032000002 -0.0054789847
-0.03726935 -0.011353239 -0.018148074
-0.046366923 -0.032000002 -0.0056486027
-0.045155924 -0.032000002 -0.0059659053
-0.044552647 -0.032000002 -0.0058305031
-0.027698979 -0.028456604 -0.013931761
-0.0091038737 -0.015551843 -0.013960844
-0.039688781 -0.032000002 -0.0057243514
-0.049485669 -0.00085306447 -0.017254474
-0.014691577 -0.0023469981 -0.020492334
-0.004496756 -0.018815409 -0.0070980238
-0.035444945 -0.032000002 -0.0054942304
-0.02360731 -0.032000002 -0.0083901864
-0.033927366 -0.032000002 -0.005231889
-0.032743573 -0.032000002 -0.0054869261
-0.017260034 -0.019493019 -0.010534999
-0.030212883 -0.032000002 -0.0053694751
-0.032208558 -0.024756391 -0.0069775851
-0.023806442 -0.02856398 -0.014178592
-0.027367059 -0.031999998 -0.0054942598
-0.026588691 -0.032000002 -0.0055630323
-0.0088553624 -0.016000003 -0.0098887384
-0.024431705 -0.032000002 -0.0056397384
-0.023650005 -0.032000002 -0.0056961467
-0.023467118 -0.027353808 -0.014551114
0.013589255 -0.030218549 -0.018168189
-0.019650728 -0.032000002 -0.0055455677
-0.018914144 -0.032000002 -0.0059566693
-0.031573482 0.019583335 -0.030999999
-0.014466368 -0.032000002 -0.0052427519
0.0091774752 -0.027875051 -0.014039438
-0.030806199 0 -0.01807184
-0.011454921 -0.032000002 -0.0054824259
-0.020083934 -0.008484765 -0.012653097
-0.0093268752 -0.032000002 -0.0052765803
-0.030745802 -0.027140109 -0.018331809
-0.023887629 0 -0.01806487
-0.009014355 0.025016617 -0.020352729
-0.0038774498 -0.032000002 -0.0051919604
-0.016909823 -0.031069603 -0.01001326
-0.0013412088 -0.032000002 -0.0054848953
-0.00066675059 -0.032000002 -0.0051696422
0.000674529 -0.032000002 -0.0055698156
0.0012000445 -0.032000002 -0.0053003728
0.0025887173 -0.032000002 -0.0053390143
0.0078174351 -0.032000002 -0.0055439086
0.02031894 -0.010666667 -0.010566792
0.0057854052 -0.029666033 -0.0090372032
0.0038820875 -0.020132786 -0.011354405
0.0077200234 -0.032000002 -0.0052326499
0.014000092 -0.018364983 -0.018288061
0.0094923349 -0.031999998 -0.0054020137
0.010012643 -0.032000002 -0.0056445431
0.011444962 -0.032000002 -0.0053734398
0.012798315 -0.032000002 -0.0053991666
0.01330495 -0.032000002 -0.0055500017
-0.008531536 -0.020914352 -0.014231384
0.015829869 -0.032000002 -0.0051808623
0.016531417 -0.032000002 -0.005685553
0.017059891 -0.032000002 -0.0059484951
0.018601211 -0.032000002 -0.0055393558
0.0033891897 -0.017830584 -0.014165707
0.020246068 -0.032000002 -0.0057961149
0.021470722 -0.032000002 -0.0057181977
0.022507519 -0.032000002 -0.0052937064
0.025685318 -0.032000002 -0.0053101042
0.026112532 -0.032000002 -0.005752617
0.027742844 -0.032000002 -0.0054702349
0.045872342 -0.015632335 -0.025331978
-0.015040741 -0.0047666151 -0.017185697
0.030266333 -0.032000002 -0.0054554953
0.031803768 -0.032000002 -0.0058896095
0.036779128 -0.015999999 -0.0079832692
0.033789594 -0.032000002 -0.0059717447
0.034637924 -0.032000002 -0.005753492
0.036414742 -0.032000002 -0.0054002851
-0.055703055 0.032000002 -0.016197894
0.038794894 -0.032000002 -0.0059563322
0.039288621 -0.032000002 -0.0054605128
0.042752624 -0.028408881 -0.011693675
0.041673783 -0.032000002 -0.0050777635
0.042436771 -0.032000002 -0.0053626387
