# .PCD v0.7 - Point Cloud Data file format
VERSION 0.7
FIELDS x y z
SIZE 4 4 4
TYPE F F F
COUNT 1 1 1
WIDTH 1257
HEIGHT 1
VIEWPOINT 0 0 0 1 0 0 0
POINTS 1257
DATA ascii
0.043971162 -0.020055324 -0.011206961
0.017664906 -0.0013604062 -0.012919296
0.039290838 -0.0098901689 -0.0089166323
0.065801136 -0.029245073 -0.0037630973
0.066352166 -0.029259052 -0.003620886
0.040042676 -0.0059064161 -0.012226998
0.068221681 -0.029260959 -0.0036015129
0.069477864 -0.029254664 -0.0036655376
-0.070000008 -0.028815877 -0.00343791
0.045000002 -0.028741222 -0.0034630026
0.07 -0.028060522 -0.0037276573
0.070000008 -0.028455863 -0.0037517694
-0.0056965407 -0.02217602 -0.013956215
0.045000002 -0.02727747 -0.0035643151
0.070000008 -0.027662119 -0.0034507643
0.070000008 -0.027093671 -0.0038817977
-0.07 -0.026284525 -0.0033395956
0.033658724 -0.024431558 -0.007800824
0.07 -0.026278339 -0.0034649307
0.045000002 -0.025598094 -0.0034727573
0.028679168 -0.033261903 -0.010342044
-0.059468567 -0.023435015 -0.011589421
0.045000002 -0.024762623 -0.0034983414
-0.07 -0.023380697 -0.0033081206
0.031993635 -0.017555475 -0.0073705344
0.07 -0.023182459 -0.0039655827
-0.061616257 -0.026104011 -0.0061662449
0.045000002 -0.022413924 -0.0035535982
0.058255076 -0.019973133 -0.0086123329
0.070000008 -0.022857415 -0.0037651313
-0.059145682 -0.017864378 -0.017322486
0.045000006 -0.021376723 -0.0035349673
0.07 -0.021746118 -0.0035369946
-0.069999993 -0.0207648 -0.0032159043
0.045000002 -0.0203752 -0.0037039137
0.07 -0.020890599 -0.0031044278
-0.057104491 0.0074402373 -0.0046233963
0.045000002 -0.019087553 -0.0034908741
0.07 -0.019418394 -0.0034239427
-0.043313347 -0.014325518 -0.011356831
0.045000002 -0.01836516 -0.0034721578
-0.07 -0.017600369 -0.003438212
0.044341926 -0.020894838 -0.0051113567
0.070000008 -0.017393157 -0.0036908507
-0.068721801 -0.0099770436 -0.01914758
0.045000002 -0.016744865 -0.0033285434
0.070000008 -0.016466653 -0.0036043408
-0.07 -0.01547498 -0.0034506128
0.045000002 -0.015978154 -0.0036351215
0.050376721 -0.017427117 -0.0096001532
0.018360801 -0.0054210774 -0.015113791
0.07 -0.014257434 -0.0037428453
-0.047250412 -0.031358059 -0.015223786
0.031785037 -0.0098512722 -0.010867121
-0.070000008 -0.012725977 -0.0038782116
0.040645011 -0.0073127667 -0.010136717
0.07 -0.012900501 -0.0030916454
0.070000008 -0.012196608 -0.0031077368
-0.070000008 -0.011641517 -0.0035581307
0.045000002 -0.011548622 -0.0033773994
0.027894069 -0.011028048 -0.018433046
0.045000002 -0.010713371 -0.0034844684
0.07 -0.010576032 -0.0030673956
-0.07 -0.0094864983 -0.0033076797
0.045000002 -0.0099370368 -0.0034847525
0.069999993 -0.0093879513 -0.0032239463
-0.047044091 -0.009378178 -0.012925977
0.045000002 -0.0084998831 -0.0034704278
-0.070000008 -0.0071167923 -0.0037636859
0.030389413 -0.011888299 -0.0043107588
0.069999993 -0.007777622 -0.0035422286
-0.064786106 0.0033371923 -0.0056350632
0.045000002 -0.0065778783 -0.0034086534
0.069999993 -0.0062276907 -0.0030996781
-0.07 -0.0055311555 -0.0039478885
0.036865935 -0.0077602854 -0.0062223845
0.07 -0.0058971234 -0.0037978441
-0.024457101 -0.012961835 -0.01317948
0.034539554 -0.0032332749 -0.0048720073
0.07 -0.0043966807 -0.0032629278
-0.069999993 -0.0034686546 -0.0034943921
0.032852866 -0.0013208615 -0.012470361
0.07 -0.003081487 -0.0032417737
-0.070000008 -0.0024645445 -0.0037164651
0.045000002 -0.0028583198 -0.0034349947
0.069999993 -0.0024926797 -0.0032189705
-0.069999993 -0.0014493405 -0.0036088645
0.035010364 -0.0086089699 -0.0063335849
0.07 -0.0016374048 -0.0037737719
0.070000008 -0.0013257614 -0.0038570212
-0.070000008 -0.00055803719 -0.0033679463
0 -0.0090815062 -0.013971135
-0.060670227 0.0098636216 -0.0081763286
0.045000002 0.00066807325 -0.0037842751
0.07 0.00017014495 -0.0033974713
0.070000008 0.00072699995 -0.0036299913
-0.069999993 0.0018286633 -0.0032542688
0.045000002 0.0015420194 -0.003002095
0.07 0.0013598825 -0.0036302623
3.7252903e-09 0.013135454 -0.0096376389
0.045000002 0.0026482835 -0.0035060549
0.069999993 0.0029456886 -0.0036793523
-0.069999993 0.0035539661 -0.0037064094
0.036657359 -0.00288632 -0.013309955
0.0023892038 -0.0096176667 -0.014984123
0.0104344 -0.024125308 -0.024227586
0.0094795469 -0.00084102515 -0.014447888
0.045000002 0.004530224 -0.0036382813
-0.03590494 0.013102937 -0.0090741171
0.030485187 0.001111084 -0.0061743278
0.07 0.0059474995 -0.0037770923
0.070000008 0.0057000788 -0.003372537
0.045000002 0.0062931865 -0.0035860017
0.061372228 0.0060026101 -0.015090275
-0.069999993 0.0076479157 -0.0030468069
0.01215079 -0.0048973523 -0.0083995815
0.07 0.0072318912 -0.0032711742
-0.07 0.0086972974 -0.0030274447
0.042689018 0.0135863 -0.0046972567
0.07 0.0088029252 -0.0038478654
-0.070000008 0.0092452522 -0.003675228
0.012369497 -0.005246968 -0.0032819321
0.031014422 -0.0025514157 -0.01035304
0.03904061 0.0059535215 -0.0069855764
0.07 0.01071981 -0.0036942121
0.01845145 0.029855762 -0.018034667
0.033498608 0.012728808 -0.0068154819
0.07 0.01166749 -0.0039009168
-0.047130492 0.015077653 -0.0077131647
0.039865278 0.014244209 -0.0050415364
0.07 0.012814768 -0.0033377721
-0.054442119 0.016447164 -0.0069906968
0.029421803 0.011111021 -0.0090695992
0.07 0.013372382 -0.0036213382
0.070000008 0.013148919 -0.0037603742
-0.058672264 -0.00041575311 -0.01752088
0.031930264 0.01038845 -0.011255655
0.057500001 0.0058034156 -0.0042744139
-0.039143901 -0.0093033742 -0.0058129425
0.045000002 0.015239399 -0.0034703971
0.07 0.015143433 -0.003535487
-0.012499999 0.010537636 -0.016938614
0.034545459 0.017571738 -0.0045673
0.070000008 0.016667997 -0.0038362227
-0.069027923 0.0046907086 -0.0045137675
0.046558894 0.011696904 -0.0038138577
0.07 0.017503191 -0.0034207241
-0.012499999 0.011345496 -0.012252543
0.011806366 0.011444518 -0.013445687
-0.020629227 0.015211146 -0.028911313
0.070000008 0.018476302 -0.0038484046
0.049166672 0.015513788 -0.0071555357
0.03478653 0.0050346144 -0.018532969
-0.07 0.02048552 -0.0039089806
0.0300832 0.01182289 -0.0053056814
0.069999993 0.0093562463 -0.0089374837
-0.070000008 0.021482434 -0.0032403483
0.045000002 0.021584226 -0.003384687
0.055374965 -0.024575705 -0.01651185
-0.055057786 0.0085458793 -0.019220369
0.045000002 0.022540212 -0.0034229564
-0.0075923717 -0.0055348715 -0.03445527
0.070000008 0.022919625 -0.0031460635
-0.059228923 0.019383455 -0.0086934045
0.040945515 0.012383227 -0.0054099606
0.060861379 0.0074018426 -0.0068289912
-0.045832478 0.011933419 -0.012746762
0.045000002 0.024409195 -0.0034315628
0.07 0.024104739 -0.0037694732
0.03385663 0.026972705 -0.0061895777
-0.0014247646 -0.0016996409 -0.026894202
-0.07 0.026595471 -0.0031782202
0.045000002 0.026557138 -0.0034544165
0.058551781 0.025515884 -0.010905087
0.070000008 0.026193738 -0.0033614377
-0.023333333 0.020342253 -0.0066666631
0.045000006 0.027290648 -0.0034671004
0.070000008 0.027584648 -0.003613197
-0.070000008 0.028505504 -0.0037012347
0.010930797 0.027773974 -0.004632364
-0.070000008 0.029589556 -0.0035882869
6.9769099e-05 0.0074858647 -0.012823673
0.046884798 0.029256975 -0.0036420089
0.047068428 0.025154954 -0.0080745919
0.048597831 0.029266212 -0.0035480459
0.049403906 0.029284298 -0.003364068
0.05041489 0.029271409 -0.0034951782
0.052230339 0.029266369 -0.0035464526
0.053742867 0.0005639419 -0.0059284088
0.054577708 0.029292909 -0.0032764731
0.056330491 0.029235005 -0.0038655081
0.057201196 0.02925685 -0.0036432841
0.05864381 0.029268499 -0.0035248112
0.039804433 0.018075075 -0.010572579
0.037175812 0.031693943 -0.005550629
0.062778294 0.029256284 -0.0036490303
0.063822076 0.029270064 -0.003508871
0.044824157 0.022077829 -0.012024721
-0.07 0.0065896055 -0.024682716
0.066675738 0.02926081 -0.0036030179
0.067657657 0.029256813 -0.0036436799
0.06839861 0.029300658 -0.0031976434
0.069438137 0.029259156 -0.0036198287
-0.07 0.03051793 -0.0039211065
0.044999998 0.030021533 -0.0034705759
0.045000002 0.03043904 -0.0035155285
0.069777481 -0.023227867 -0.018116837
0.045000002 0.031258415 -0.003473951
-0.07 0.03207425 -0.0037012603
0.045000002 0.0328447 -0.0038870133
-0.07 0.033542972 -0.003525249
0.045000002 0.033583693 -0.0033105051
-0.051984776 0.033846434 -0.0059793568
-0.032551005 0.030347899 -0.011348858
-0.067480549 0.034672521 -0.0033274307
-0.033542871 0.030501839 -0.0056950762
-0.065632612 0.034637298 -0.0036853007
-0.06451311 0.034644883 -0.0036082268
-0.062674008 0.034671366 -0.0033391588
-0.061703887 0.034662165 -0.0034326436
-0.060420316 0.034660071 -0.0034538882
-0.059557103 0.034642883 -0.0036285564
-0.058554005 0.034655567 -0.0034996809
-0.057498887 0.034652475 -0.0035310909
-0.056359664 0.034651287 -0.003543183
-0.055484951 0.034643464 -0.0036226744
-0.054529101 0.034664109 -0.0034128577
-0.033838224 0.014048649 -0.018746888
-0.052578494 0.03464593 -0.0035975685
-0.051132418 0.034667354 -0.0033799212
-0.050317951 0.034662224 -0.0034320517
-0.040546909 0.023317158 -0.010756135
-0.023370434 0.032964021 -0.0049455236
-0.030909752 0.01824481 -0.008582334
-0.046252005 0.034657229 -0.0034828144
-0.045662094 0.034635328 -0.0037053456
-0.044985093 0.034695908 -0.0030897921
-0.023962986 0.020055233 -0.0091136834
-0.042362239 0.034678932 -0.0032622796
-0.041399051 0.034665346 -0.0034003039
-0.04353027 0.022405168 -0.010385485
-0.019245926 0.025815478 -0.013444345
-0.0372664 0.034655731 -0.0034980054
0.000345918 -0.017571945 -0.023206115
-0.031172208 0.01251857 -0.018616194
-0.033581678 0.024614956 -0.0067496784
-0.033591121 0.034618799 -0.003873266
-0.032483395 0.024982151 -0.0091617452
-0.031459324 0.03465756 -0.0034793955
-0.030040827 0.034702733 -0.0030204537
0.0037682853 0.028941244 -0.0034414958
-0.028372109 0.034684047 -0.0032103211
-0.027723499 0.034651235 -0.0035436703
-0.026444832 0.034642406 -0.0036334239
-0.01626109 0.019711547 -0.008754421
-0.024033034 0.034658566 -0.0034692287
-0.023230392 0.034663081 -0.0034233264
-0.0039855107 0.031408589 -0.0054983958
-0.0061291358 0.034266923 -0.0055204923
-0.020568892 0.034696683 -0.003081901
0.0019561308 0.018657276 -0.0076833977
-0.017573005 0.034669004 -0.0033631171
-0.014451585 0.025241721 -0.01254766
0.02706789 0.026257155 -0.0082602464
-0.014445301 0.034636512 -0.0036933101
-0.015325115 0.0030168192 -0.011813838
-0.012415897 0.034643129 -0.0036260688
0.0017396802 0.016852124 -0.0089367982
-0.013396283 0.0096689006 -0.009424651
-0.0095191058 0.034623191 -0.0038286585
-0.0084911603 0.03464853 -0.0035711797
0.045000002 -0.034323812 -0.0062438496
-0.0062977239 0.034645997 -0.003596935
-0.0053173183 0.034654882 -0.0035066218
-0.0045186821 0.034662873 -0.0034254668
-0.0037432807 0.034639761 -0.0036602567
-0.0024498049 0.034645572 -0.0036012209
-0.0017262343 0.034622397 -0.0038367244
-0.00053266156 0.034636278 -0.003695695
0.00062746683 0.034613024 -0.0039319624
0.0014027925 0.034653924 -0.0035163541
-0.0051779593 0.020148057 -0.01344528
0.0038069319 0.034649745 -0.0035588387
0.00429514 0.034659088 -0.0034639193
0.014009977 0.017920276 -0.015461017
0.0015047127 0.026585415 -0.011317229
-0.058381554 -0.031775113 -0.014443455
-0.0050465958 0.019654011 -0.0072837938
0.010711709 0.034644682 -0.0036102855
0.0079517355 0.033738937 -0.0064782696
0.012821794 0.034700483 -0.003043307
0.01330547 0.03467606 -0.0032914642
0.014099853 0.034656793 -0.0034872419
0.015493944 0.034653775 -0.0035178543
0.016029743 0.034624655 -0.0038137694
0.017632239 0.034618743 -0.0038738255
0.01886216 0.034694098 -0.0031082202
0.021982435 0.034637492 -0.0036833512
0.023497827 0.034660801 -0.0034464821
0.02444255 0.034651503 -0.0035409762
0.02528177 0.034667507 -0.0033783587
0.026412522 0.034665212 -0.0034017209
0.011884392 0.033009898 -0.0078814039
0.013051203 0.0019277511 -0.0096342517
0.029332196 0.034643669 -0.0036205954
0.030935725 0.034693517 -0.0031140861
0.032419223 0.034658417 -0.0034707042
0.033568598 0.034663104 -0.0034231343
0.03429307 0.034653448 -0.0035212345
0.035790067 0.034627251 -0.0037873914
0.037752416 0.031024128 -0.0089033656
0.03776845 0.034615465 -0.0039071562
0.039504465 0.034653045 -0.0035253481
-0.0051428229 0.018457547 -0.024132378
0.041406453 0.034670074 -0.0033522735
0.042476825 0.034670107 -0.0033519068
0.043542866 0.034657955 -0.0034754341
0.044551719 0.034667019 -0.0033833098
0.045000002 0.034312479 -0.0032269368
-0.069959119 -0.03459511 -0.0024817875
-0.068641901 -0.034752443 -0.0025153554
-0.067445189 -0.034738414 -0.0026578845
-0.066590026 -0.034732096 -0.0027221069
-0.057212673 -0.015728962 -0.01411543
-0.05803157 -0.029028121 -0.011660728
-0.063635819 -0.034734748 -0.0026951784
-0.061426591 -0.034730047 -0.0027428749
-0.060392659 -0.025081966 -0.010680995
-0.041036975 -0.02297907 -0.0097154928
-0.058536768 -0.034769919 -0.0023377931
-0.057431027 -0.034798939 -0.002042914
-0.059856169 -0.030456891 -0.0028226231
-0.05550484 -0.034746356 -0.0025772273
-0.054225709 -0.034791112 -0.0021224404
-0.053234331 -0.03473822 -0.002659881
-0.052240573 -0.034762517 -0.0024130221
-0.049341217 -0.034729227 -0.0027512345
-0.048648611 -0.034763027 -0.0024078223
-0.047761045 -0.034716357 -0.0028820103
-0.032998312 -0.034514233 -0.0039231153
-0.045343954 -0.034771811 -0.0023185476
-0.044566616 -0.034784824 -0.0021863445
-0.034819424 -0.020662919 -0.0090325661
-0.042352989 -0.034767769 -0.0023596566
-0.0042612455 -0.025663771 -0.0052611823
-0.040754143 -0.034752563 -0.0025141283
-0.03941372 -0.034786489 -0.0021694237
-0.029446308 -0.028934635 -0.014359648
-0.037015267 -0.03472368 -0.0028075962
-0.036320545 -0.025874231 -0.0070227096
-0.034461409 -0.034750283 -0.0025373101
-0.044743896 -0.020402597 -0.010121689
-0.032472432 -0.034727834 -0.0027653761
-0.041185621 -0.026760668 -0.012847029
-0.030638129 -0.034757789 -0.0024610392
-0.031497382 -0.023709211 -0.0077440734
-0.028773922 -0.03475529 -0.0024864385
-0.016703095 -0.02979698 -0.0095454389
-0.026633248 -0.034777071 -0.0022651087
-0.025554568 -0.034727488 -0.0027688728
-0.024688732 -0.034760471 -0.0024337906
-0.022399962 -0.034746595 -0.0025747474
-0.021492887 -0.034737088 -0.0026713838
-0.020285491 -0.034735866 -0.0026838027
-0.0044420613 -0.011879995 -0.0045839008
-0.004805434 -0.017981866 -0.013764401
-0.017455708 -0.03478317 -0.0022031609
-0.069857232 -0.023092624 -0.026108388
-0.015642373 -0.034739334 -0.0026485526
-0.014892446 -0.034709312 -0.0029536057
0.0031320965 -0.029321518 -0.010475728
-0.012302766 -0.034764633 -0.0023915046
-0.015755046 -0.020649258 -0.018274469
-0.010595079 -0.034739386 -0.0026480416
-0.0095093669 -0.034728102 -0.0027626515
-0.0085586496 -0.034743473 -0.0026065107
-0.0076453681 -0.034763612 -0.0024018772
-0.014760708 -0.012908418 -0.013157921
-0.0053776405 -0.034728181 -0.0027618832
-0.03615386 -0.016471412 -0.0027880631
0.026870348 -0.0051440038 -0.0095256753
-0.00047301687 -0.034734577 -0.0026968899
0.00036998343 -0.03473179 -0.002725207
0.0012760833 -0.034776248 -0.0022734636
0.0022643483 -0.034750838 -0.0025316866
0.0034111808 -0.034775712 -0.002278938
0.0049324129 -0.03475029 -0.0025372431
0.0050877966 -0.034723446 -0.0028100042
0.0060677137 -0.034762397 -0.0024142496
0.0072766226 -0.034764871 -0.0023890585
0.0096474122 -0.034739777 -0.0026440485
0.01070554 -0.034787118 -0.0021630083
0.011156004 -0.034736998 -0.0026723284
0.012173207 -0.034720775 -0.002837115
0.0044231857 -0.021148501 -0.0044594668
-0.0055080131 0.0045967433 -0.014720142
0.01528343 -0.034757718 -0.0024617757
0.012035099 -0.017545152 -0.0041209487
0.01721848 -0.034735039 -0.0026921909
0.020193648 -0.034763649 -0.0024014972
0.021675345 -0.034766849 -0.0023690241
0.022483042 -0.034760457 -0.0024339489
0.001710169 -0.025402164 -0.01321221
0.025410075 -0.034784548 -0.0021891289
0.026245026 -0.034731515 -0.002727998
0.027158353 -0.034743581 -0.0026053851
0.029425016 -0.034721956 -0.0028251088
0.030534795 -0.034762062 -0.0024176151
0.0046495572 -0.016594632 -0.011348603
0.032609548 -0.034762897 -0.0024091727
-0.0035415422 -0.025090221 -0.016810974
0.036412813 -0.03474547 -0.0025862223
0.037469372 -0.03474706 -0.0025700545
0.038644951 -0.034759488 -0.0024437932
0.039573945 -0.034766618 -0.0023713219
0.040545762 -0.03478023 -0.0022330105
0.02967382 -0.015295431 -0.010203239
0.042512141 -0.034752373 -0.0025160741
0.043985941 -0.034709923 -0.0029473912
0.044435505 -0.034752369 -0.002516106
0.038417608 -0.028173272 -0.0095933592
0.0094547281 0.014601754 -0.031690508
0.045000002 -0.033592291 -0.0020118062
-0.070000008 -0.032249082 -0.0020527793
0.045000002 -0.032236725 -0.0023086853
-0.023847964 0.00087282062 -0.0060634715
0.018871451 -0.0065915044 -0.012083939
-0.043925446 -0.025019515 -0.007761538
0.045000002 -0.030559471 -0.002442037
0.045673516 -0.021030109 -0.0028363632
0.046560124 -0.029392289 -0.0022655376
0.047651783 -0.029383786 -0.0023520358
0.029950866 -0.013391944 -0.0028645527
0.049372301 -0.029384306 -0.0023467459
0.050713684 -0.029393693 -0.0022512246
0.052824661 -0.029349603 -0.0026997491
0.054746125 -0.029370267 -0.0024895528
0.056534715 -0.029363118 -0.0025622917
0.05710236 -0.029352373 -0.002671577
0.049667407 -0.018879605 -0.0056691105
0.059416573 -0.029385051 -0.0023391908
0.03269868 -0.0032704417 -0.034678128
0.061630793 -0.029378034 -0.002410538
0.062378086 -0.029373799 -0.0024536427
0.063267559 -0.029373143 -0.0024603035
0.06446372 -0.029363772 -0.0025556101
0.043009058 -0.025028318 -0.002997593
0.066621318 -0.029381271 -0.0023776363
0.059992623 -0.024842564 -0.012133809
0.055702753 -0.011274424 -0.018345229
0.047860261 -0.025429722 -0.0099628344
-0.07 -0.02864553 -0.0025768343
0.017040035 -0.02665822 -0.010381987
0.015722297 -0.020280769 -0.020825736
-0.07 -0.027577195 -0.002652443
0.0066666706 -0.023710079 -0.0076754983
0.07 -0.027459469 -0.002909106
0.024620268 -0.010428564 -0.0098013394
0.051928315 0.00010259636 -0.0043375893
-0.045695603 -0.023282008 -0.0070642564
0.045000002 -0.025393834 -0.0026142984
0.07 -0.025618223 -0.0023880976
-0.014418878 0.0028871624 -0.010184081
0.045000002 -0.024449548 -0.0027858079
-0.07 -0.023851521 -0.0025841217
0.048927806 -0.017334197 -0.0063136565
0.07 -0.023470748 -0.0025401753
0.045000002 -0.022738639 -0.0024157157
0.070000008 -0.022625526 -0.0028388486
-0.046999998 -0.013440328 -0.0030014198
0.03837337 -0.017228717 -0.010702331
-0.070000008 -0.020623097 -0.0024783085
0.045000002 -0.020389987 -0.0022804672
0.032085478 -0.021033112 -0.010828534
-0.030775884 -0.011107329 -0.01850039
-0.008754652 -0.01947053 -0.015862675
0.07 -0.019027121 -0.0029337723
-0.07 -0.01846398 -0.0025492138
0.026883798 -0.01930829 -0.014463801
0.023795296 -0.026115432 -0.005514212
0.045000002 -0.017284272 -0.0025067965
0.07 -0.017398641 -0.0025911869
-0.07 -0.016000507 -0.0021599131
0.027167033 -0.014566985 -0.017830962
0 -0.0028988654 -0.016132351
-0.07 -0.015680056 -0.0022536479
0.021420179 -0.015085384 -0.0098883584
0.07 -0.015745128 -0.0024109483
-0.07 -0.014517606 -0.0027655186
0.037413917 -0.017080888 -0.01294881
0.07 -0.014831023 -0.0024122838
-0.069298238 -0.013885072 -0.0085176872
0.022070229 -0.016807936 -0.0055104787
0.070000008 -0.013551327 -0.0024676709
-0.070000008 -0.01255095 -0.0027810836
0.045000002 -0.012482693 -0.0023108469
0.016218092 -0.026966207 -0.016409002
-0.07 -0.01147987 -0.0023285472
0.033700362 -0.0090745222 -0.0064035049
0.07 -0.011395445 -0.0022978457
-0.070000008 -0.010197046 -0.0025718797
0.045000002 -0.010552183 -0.0024749371
0.04508866 -0.010310639 -0.0081870575
0.034644593 -0.032915555 -0.011483673
0.043241143 -0.010520875 -0.0074299211
0.07 -0.009616591 -0.0026393286
-0.069999993 -0.0084788557 -0.0026849275
0.045000002 -0.008024957 -0.0023935949
0.05091276 -0.012582246 -0.007965209
-0.069999993 -0.0077811386 -0.0026281578
0.043154556 -0.0047817845 -0.0030074026
0.07 -0.0075219665 -0.0020266352
0.070000008 -0.007750161 -0.0028112829
0.050000001 -0.003488176 -0.0039890124
0.07 -0.0065823407 -0.002385973
0.070000008 -0.0063386979 -0.0020559179
0.031775475 -0.015726354 -0.012926815
0.069999993 -0.0053559043 -0.0025403239
-0.070000008 -0.0044282819 -0.002081899
0.037932143 -0.0025581354 -0.0070682736
-0.045838434 -0.010592842 -0.0052384851
0.0306339 -0.0054183612 -0.0073977816
0.069999993 -0.0035369003 -0.0027999794
-0.023670353 0.017622381 -0.030076113
0.045000002 -0.007375469 -0.0040127053
-0.052499995 -0.00095789047 -0.0037246284
0.014075194 0.003516084 -0.0052857711
-0.07 -0.00053286541 -0.0022300812
0.045000002 -0.00044625808 -0.0026041218
0.055598773 -0.0047201221 -0.0093448972
-0.069999993 0.00028517906 -0.0027264263
0.045000002 -0.0049813259 -0.0065939184
-0.033632189 -0.013799998 -0.01288035
0.041299932 -0.0009222643 -0.0059363954
0.07 0.0018873388 -0.0021045688
-0.063781247 0.0019635861 -0.010392619
0.05125 -0.0043021389 -0.003393736
-0.059528496 -0.0053414972 -0.034474298
-0.041250002 -0.0045139436 -0.0045349533
0.030558709 0.0061235451 -0.0056380229
0.042000003 0.0028937568 -0.0051938249
-0.07 0.0041726846 -0.0023209415
0.045000002 0.0045736907 -0.0026558377
0.069999993 0.0042666085 -0.0025977262
-0.07 0.005456835 -0.0023876107
0.044999998 0.0055723093 -0.0025429875
0.035489507 0.0020254983 -0.0061206347
0.025071418 0.01495711 -0.0044336314
-0.07 0.006262105 -0.0026315905
0.045000002 0.0065145567 -0.0023223041
0.07 0.0062201871 -0.0023589721
-0.032459103 -0.0037333232 -0.023414146
0.045000002 0.007215796 -0.0025688291
0.07 0.0076111043 -0.002282151
-0.056850821 -0.015450904 -0.031236673
-0.07 0.0086082136 -0.002158151
0.022907382 0.0084477169 -0.0089686299
0.045000002 0.0093162991 -0.0022876079
0.053189844 0.012002327 -0.0090855639
-0.07 0.010319564 -0.00249107
0.03720545 -0.0047112396 -0.0036442222
-0.070000008 0.011411539 -0.0025074088
0.057500005 0.0029191363 -0.0090906974
0.0053539053 0.018595742 -0.029555893
-0.063403323 -0.0020419066 -0.0083972812
0.045000002 -0.01146666 -0.0043479698
-0.010756286 0.017187007 -0.030308802
-0.07 0.013351934 -0.0023490312
0.045000002 0.013521816 -0.0023521611
0.07 0.013327211 -0.0025637867
-0.0072629936 0.017911136 -0.011607932
0.045000002 0.01464308 -0.0026467098
0.050264936 0.01432798 -0.0083803991
-0.07 0.015453382 -0.0028262893
0.047500011 0.01800805 -0.0048329788
-0.027557075 0.027487656 -0.02141203
-0.056841552 0.014046246 -0.013222268
0.045000002 0.011550206 -0.0059946873
-0.044922233 0.0035080712 -0.010363988
0.016522449 0.025338694 -0.0063465615
0.07 0.017094001 -0.002708744
0.01215079 -0.0048973523 -0.0083995815
0.044999998 0.018704927 -0.0028717006
0.037761763 0.015887987 -0.0078932829
-0.07 0.019452421 -0.0026570777
0.034079682 0.019490916 -0.0077109085
0.046021771 0.0017524213 -0.004512703
-0.07 0.020512808 -0.002051862
0.045000002 0.020311829 -0.002255643
0.07 0.020440195 -0.0024199383
0.045000002 0.021079047 -0.0029146413
0.070000008 0.021330765 -0.0024158352
-0.07 0.022226606 -0.0022467473
0.021856239 0.0049766228 -0.0075623873
0.07 0.022362687 -0.0026110136
-0.07 0.023663117 -0.0023091568
0 0.00051209331 -0.012402767
0.07 0.023460699 -0.0026315567
-0.070000008 0.024196342 -0.0022067362
0.039626043 0.025345914 -0.0053357109
0.048469022 -0.0064982804 -0.028828427
-0.07 0.025579868 -0.0025253822
0.04626587 0.011383085 -0.017685302
0.07 0.025689028 -0.0024575903
-0.07 0.026509222 -0.0023564515
0.0241959 0.025713712 -0.0042115985
0.012185281 0.015329959 -0.01873726
-0.046401162 0.0006224392 -0.012730151
0.045000002 0.02003625 -0.007918111
0.070000008 0.027516184 -0.0022355206
0.070000008 0.027288239 -0.0028903137
0.045000002 0.028451944 -0.0024033033
0.07 0.028859481 -0.0025901187
-0.046999998 0.024220144 -0.0064523863
0.045176566 0.029354012 -0.0024317275
0.011410454 -0.011538291 -0.0094247488
0.047415785 0.029370172 -0.0024905191
0.024296431 0.019137157 -0.012365664
0.045998126 0.018653769 -0.012503703
0.0050008129 -0.00024794415 -0.010093095
-0.022880508 -0.025148876 -0.024261761
0.052535713 0.029351227 -0.00268324
0.053381305 0.029367428 -0.0025184415
0.05444245 0.029362965 -0.0025638279
0.055708017 0.029367588 -0.0025167929
0.02481328 0.020682167 -0.013014108
0.057296567 0.029360455 -0.0025893599
0.059698194 0.029370744 -0.0024846969
0.049745675 0.022343762 -0.01678998
0.042755719 0.012039267 -0.015401189
0.05590361 0.014598019 -0.0084141372
0.054320112 0.020335212 -0.0066008037
0.050564133 0.010026207 -0.004894645
0.065200508 0.029354736 -0.0026475205
0.043372694 0.0002064826 -0.011101681
0.067562222 0.029358737 -0.0026068322
0.06863305 0.029365778 -0.0025352137
0.069445066 0.029378893 -0.0024017955
-0.07 0.030678745 -0.0022498635
0.034976844 0.016603494 -0.0075820419
-0.070000008 0.031413198 -0.0022503254
-0.0042612455 -0.025663771 -0.0052611823
0.045000002 0.03194689 -0.0024445057
-0.070000008 0.032744996 -0.0028431357
0.045000002 0.032195199 -0.0023724192
-0.030803194 0.010957053 -0.0093030259
0.022000002 0.027203476 -0.0070798039
-0.049332097 0.021770678 -0.0056576207
-0.068834573 0.03471921 -0.0028529975
-0.064702198 0.019654874 -0.012905693
-0.066653937 0.034713957 -0.0029063844
-0.065455109 0.034785528 -0.0021791742
-0.064900994 0.034730189 -0.0027414674
-0.063791543 0.034784947 -0.0021850879
-0.062666021 0.034748517 -0.0025552346
-0.06125959 0.034769051 -0.0023465932
-0.039036386 0.025341053 -0.012932107
-0.021903958 0.019108908 -0.0084552793
-0.056991141 0.034773167 -0.0023047875
-0.055270176 0.034732725 -0.0027157019
-0.054298513 0.034733888 -0.0027038692
-0.05334381 0.034706403 -0.0029831496
-0.052536678 0.034748875 -0.0025516062
-0.02697671 0.024885844 -0.0069360803
-0.039169393 0.026657905 -0.012550552
-0.047477119 0.034726359 -0.0027803734
-0.046015926 0.034797888 -0.0020535954
-0.045108289 0.034749839 -0.0025417968
-0.044446878 0.034766808 -0.0023694197
-0.023304056 0.024482241 -0.010424346
-0.042426102 0.034726441 -0.0027795485
-0.041469924 0.034759451 -0.0024441455
-0.040435415 0.034743205 -0.0026092429
-0.03930115 0.03474348 -0.0026064473
-0.038357414 0.034758307 -0.0024557775
-0.037587259 0.034768365 -0.0023535846
-0.043722935 0.027675286 -0.010407181
-0.035627026 0.034762725 -0.0024109082
-0.017401308 0.005245016 -0.013645966
-0.038184736 0.017474903 -0.0035579565
-0.032777019 0.034733661 -0.0027062432
-0.031107634 0.034782425 -0.0022107079
-0.030459464 0.034752112 -0.0025187319
0.0078846999 -0.033390574 -0.0099179382
-0.028361987 0.034762219 -0.002416037
-0.027737975 0.034747303 -0.00256759
-0.048194788 0.0015040357 -0.0057879984
-0.025326002 0.034754686 -0.0024925596
-0.024625083 0.034764111 -0.0023967852
-0.02328917 0.034784775 -0.0021868418
-0.022348233 0.034784202 -0.00219268
-0.021609202 0.034789965 -0.0021340754
-0.019321993 0.03478172 -0.0022178681
-0.018050967 0.034759544 -0.0024431995
-0.0053205322 0.02494923 -0.010372909
-0.019688845 0.021452323 -0.0051076408
-0.015828945 0.03478111 -0.0022240928
-0.014098555 0.034750074 -0.0025394552
-0.013875099 0.034786791 -0.0021663944
-0.012244578 0.034746766 -0.0025730575
-0.011881378 0.034758866 -0.0024501213
-0.010335535 0.034706712 -0.0029799896
-0.01629664 0.020537881 -0.013024282
-0.0085023064 0.034799539 -0.0020368411
-0.0074606743 0.034716204 -0.002883567
-0.0066808295 0.034736022 -0.0026822144
-0.0055975961 0.034727387 -0.002769954
-0.004139808 0.034760617 -0.0024322998
-0.0094947498 0.034745034 -0.0025906395
-0.0024664141 0.034783285 -0.0022019788
-0.0014253936 0.034747288 -0.0025677532
-0.00041901544 0.034745466 -0.002586276
-0.0028101983 0.030893741 -0.0074663432
0.0014851186 0.034786116 -0.0021731865
0.0025509242 0.034734413 -0.0026985679
-0.0043032891 0.019068865 -0.0089211492
0.0043264134 0.034754686 -0.0024925731
-0.012085458 0.0044299774 -0.012735205
0.007844219 0.034754794 -0.0024914655
0.012022579 0.01465154 -0.0094622625
0.0095174154 0.034736063 -0.0026817885
0.010244887 0.034718588 -0.0028593396
0.011523613 0.034757905 -0.0024598869
0.0048474902 0.01801098 -0.012615373
0.013338509 0.034746803 -0.0025726527
0.015300382 0.0347054 -0.0029933315
0.016194144 0.034717828 -0.0028670551
0.018759809 0.034748912 -0.0025512162
0.019696936 0.03472038 -0.0028411318
0.020401575 0.034776494 -0.0022709719
0.021032864 0.034726579 -0.0027781611
0.015520084 0.026514579 -0.008790656
0.023470938 0.034758903 -0.0024497635
0.028021015 0.023171842 -0.010068258
0.023395788 0.015326661 -0.013670961
0.026273949 0.034740221 -0.0026395395
0.0279142 0.034708511 -0.002961725
0.028480632 0.034779165 -0.002243859
0.030506337 0.034722406 -0.0028205388
-0.030776318 0.00091705041 -0.034909748
0.044188976 0.013666453 -0.0042519262
0.01702477 0.01310769 -0.0072189732
0.00037141144 0.024419308 -0.010440486
0.019817805 0.0043658549 -0.019871404
0.036462881 0.034763552 -0.0024024323
0.026755646 0.033616215 -0.0077846372
0.034943439 0.020373547 -0.01304649
0.039555546 0.034757286 -0.0024661187
0.04042967 0.034778841 -0.0022471137
0.020697176 0.025358176 -0.0086004073
0.042188704 0.034749895 -0.0025412631
0.044025175 0.0347418 -0.0026234889
0.045000002 0.034386873 -0.0022302771
-0.056130391 -0.032730676 -0.0060577202
-0.067602359 -0.034834459 -0.0016820109
-0.066608027 -0.034864008 -0.0013817754
-0.040311553 -0.016128246 -0.01217059
-0.064226568 -0.034832098 -0.0017060072
-0.063183233 -0.034883887 -0.0011797877
-0.062619172 -0.034863792 -0.0013839881
-0.060584962 -0.034872781 -0.0012926341
-0.058211993 -0.034860715 -0.0014152583
-0.05749891 -0.034884382 -0.0011747769
-0.056321107 -0.034846567 -0.0015590145
-0.055430911 -0.034852594 -0.0014977609
-0.033263132 -0.01206583 -0.0042124637
-0.055476379 -0.012652441 -0.0059157601
-0.052348498 -0.034873404 -0.0012863246
-0.051533885 -0.034856182 -0.0014612807
-0.050765317 -0.03483047 -0.0017225468
-0.04960211 -0.034807503 -0.001955908
-0.036330972 -0.00563101 -0.013415803
-0.047474507 -0.034823932 -0.001788985
0.011631908 -0.020668624 -0.012960047
-0.045501459 -0.034827605 -0.0017516559
-0.044609353 -0.034825251 -0.0017755728
-0.043534398 -0.034881093 -0.0012082187
-0.04151766 -0.034858052 -0.0014422948
-0.040551748 -0.034853376 -0.0014898168
-0.042083323 -6.4397231e-05 -0.0024354728
-0.037145548 -0.034809042 -0.0019402828
-0.036553275 -0.034849588 -0.0015283215
-0.035345156 -0.034807056 -0.0019604377
-0.034448043 -0.034834217 -0.0016844661
-0.034300208 -0.029820979 -0.009141637
-0.032420985 -0.034842696 -0.0015983458
-0.050771311 -0.022682805 -0.0094009144
-0.030248884 -0.034859046 -0.0014321965
-0.029378621 -0.034846954 -0.0015550652
-0.010406107 -0.0043471842 -0.0097299954
0.0085481964 -0.023246095 -0.011194484
-0.026607439 -0.034862317 -0.0013989529
-0.025486395 -0.03484207 -0.0016046655
-0.02436718 -0.034879111 -0.0012283451
-0.011718518 0.0041677561 -0.028966226
-0.016072709 -0.026402099 -0.012224164
-0.002579866 -0.012000453 -0.01728587
-0.01523119 -0.023586191 -0.0030804016
-0.01809584 -0.034834325 -0.0016833951
-0.017363627 -0.034804314 -0.0019882882
-0.015471108 -0.034841113 -0.0016143882
-0.014339983 -0.034855392 -0.0014693192
-0.013401762 -0.034850575 -0.0015182544
-0.012621142 -0.034876063 -0.0012593085
-0.011549341 -0.034881458 -0.0012044873
-0.010362189 -0.034847528 -0.0015492075
-0.011867935 -0.0082318913 -0.013457678
-0.0086626587 -0.034842443 -0.0016008671
-0.0075489096 -0.034852244 -0.0015013079
-0.0065462547 -0.034843884 -0.0015862565
-0.0052736122 -0.034863979 -0.0013820833
-0.003396471 -0.034857407 -0.0014488708
-0.0025214041 -0.034856644 -0.0014566135
-0.0014578067 -0.034892261 -0.0010946901
-0.012082301 -0.032804459 -0.0032717101
-0.011740474 -0.026334509 -0.012318874
0.0012534134 -0.034863725 -0.0013846568
-0.017633485 -0.027817737 -0.012991652
0.0034782719 -0.034901261 -0.0010032452
0.0045958804 -0.03485097 -0.0015142568
0.0071852924 -0.013554799 -0.0075678648
-0.0061389157 -0.033521853 -0.0070745572
0.0083985142 -0.034843668 -0.0015884403
0.0099652652 -0.034855064 -0.001472635
-0.0038767701 -0.028240681 -0.0094819106
0.011552645 -0.034880556 -0.0012136388
0.012270601 -0.034838866 -0.0016372419
0.061224766 0.0053330502 -0.02909074
0.029227266 -0.01008724 -0.013835361
0.015261438 -0.034886371 -0.0011545351
0.016759608 -0.034830958 -0.001717575
0.017570511 -0.034859728 -0.0014252601
0.018706778 -0.034847736 -0.0015470876
0.041726727 -0.0055681877 -0.0095984926
0.021366809 -0.034807362 -0.0019573551
0.038698923 -0.027742488 -0.011339393
0.006719064 -0.024521207 -0.0073545179
0.024710704 -0.034830466 -0.0017225775
0.040815242 -0.013531929 -0.010793685
0.02681059 -0.034882147 -0.001197456
0.0033746166 -0.025680136 -0.0094632125
0.040278893 -0.011872607 -0.03279756
0.029590569 -0.034887698 -0.0011410455
0.030403003 -0.034858596 -0.0014367783
0.039144948 -0.028332269 -0.0029727807
0.032722492 -0.034837566 -0.0016505038
0.017317325 -0.02659481 -0.0097832168
0.035918146 -0.034845263 -0.0015722092
0.030485187 0.001111084 -0.0061743278
0.037301555 -0.034850329 -0.001520762
0.03166914 -0.022161495 -0.012672032
0.03976725 -0.0348932 -0.0010851357
0.018296357 -0.019190021 -0.0064844461
-0.0082546473 -0.0075815497 -0.013504539
0.042472672 -0.034842007 -0.001605329
0.043280452 -0.034846686 -0.0015578001
0.04697853 -0.026060382 -0.0067259953
0.045000002 -0.034806892 -0.0015321918
-0.07 -0.033125833 -0.0015162354
0.045000002 -0.0048098732 -0.018395713
0.045000002 -0.032523293 -0.0016127273
-0.061213173 0.0015352722 -0.0037242118
0.045000002 -0.031492583 -0.0014950326
-0.031666666 -0.02152846 -0.0045117997
0.045000002 -0.030850073 -0.001054148
-0.07 -0.029528884 -0.0013638271
0.019863626 -0.011045948 -0.0046044653
0.045000002 -0.030611061 -0.0094035212
0.047621578 -0.029473081 -0.0014436748
0.048287056 -0.029421639 -0.0019669726
0.049461577 -0.029449228 -0.0016863068
0.010147671 -0.017501146 -0.0060628867
0.033368193 0.0016684624 -0.034835793
0.014036114 -0.021510644 -0.016882669
-0.0017712023 -0.020595824 -0.012941216
0.045000002 -0.016371667 -0.0065520233
0.055589072 -0.029484816 -0.0013242885
0.056754835 -0.0294872 -0.0013000427
0.050738677 -0.019366097 -0.0034399782
0.058462836 -0.029490355 -0.0012679442
-0.053365678 0.0076549007 -0.034077134
0.060202759 -0.029476343 -0.0014104865
0.040232673 -0.011214746 -0.0093772002
0.025640029 -0.02004716 -0.012590231
0.037693858 -0.016740207 -0.002744745
0.065388978 -0.029476747 -0.0014063832
0.066236712 -0.029419253 -0.0019912357
-0.0011554509 -0.0135564 -0.0065375213
0.069129571 -0.029469909 -0.0014759556
-0.07 -0.028985981 -0.0016189804
0.023326026 -0.020206951 -0.0045463112
0.023333333 -0.019548118 -0.008271588
-0.07 -0.027804641 -0.0016968357
0.044999998 -0.027254814 -0.0017326549
0.039144725 -0.012668112 -0.010204051
0.070000008 -0.027847083 -0.0018084816
-0.07 -0.026716188 -0.0015395905
0.042502593 -0.02231436 -0.0027086721
-0.051371168 -0.015071202 -0.008929004
0.026442651 -0.01598651 -0.0064611891
0.061666667 -0.02361168 -0.0038035284
-0.01007694 0.00088979723 -0.017119208
0.030196382 0.0080540664 -0.0279909
0.07 -0.024441432 -0.0010158694
-0.070000008 -0.023743212 -0.0014687218
0.035206392 -0.015086722 -0.0022500379
0.0037844554 0.0034991624 -0.0090678819
-0.07 -0.022514839 -0.001357086
0.02822341 -0.013739707 -0.0099381302
0.023153348 -0.00063919649 -0.01453808
-0.07 -0.021298213 -0.0012673326
0.045000002 -0.0216581 -0.0014150556
0.07 -0.021524379 -0.0018002237
-0.032850444 -0.020041768 -0.0063270265
0.036736708 -0.012726421 -0.007052517
0.03557023 -0.012345473 -0.012516364
-0.070000008 -0.01936765 -0.0016769336
0.028217066 -0.018794496 -0.011124081
-0.07 -0.018512607 -0.0018571247
0.048480071 -0.019855728 -0.0035821402
0.07 -0.018344652 -0.0012656311
-0.070000008 -0.017677084 -0.0018041665
0.045000002 -0.017430512 -0.0012360883
0.046419188 -0.01842268 -0.014507422
-0.069999993 -0.016666561 -0.0017839572
0.055454459 0.0022759773 -0.010777982
0.070000008 -0.016709212 -0.0015233982
-0.043383669 -0.012978135 -0.0080236718
0.045889162 -0.00058274594 -0.0024118307
-0.07 -0.014286172 -0.0018923441
0.032244019 -0.010832655 -0.0070827035
0.070000008 -0.014415933 -0.0014979331
-0.07 -0.013548748 -0.0016783318
0.00059914775 0.009133664 -0.0083409846
0.07 -0.013248498 -0.0017538164
-0.07 -0.012519903 -0.0015213508
0.045000002 -0.012302921 -0.0015982024
0.044942483 -0.017222192 -0.0085767414
-0.070000008 -0.011895586 -0.0016871407
0.045000002 -0.011057639 -0.001581213
0.07 -0.011599647 -0.0011543306
-0.07 -0.010400615 -0.0017067958
0.036674928 -0.013545803 -0.0032086284
0.07 -0.010464357 -0.001333619
-0.07 -0.0096019097 -0.0014743274
0.045000002 -0.0093967654 -0.0015965583
0.051332928 0.0060332175 -0.014646625
-0.07 -0.0081783291 -0.0014041648
0.045000002 -0.008092396 -0.0010517947
0.069999993 -0.0086547267 -0.0015092408
0.070000008 -0.0087027755 -0.0019517979
-0.070000008 -0.0073328065 -0.0016248034
0.03541667 -0.0044581648 -0.0032237228
0.025337767 -0.031702645 -0.014579041
0.070000008 -0.0075672059 -0.0015794802
-0.07 -0.0063471561 -0.0016481699
0.045000002 -0.0064401734 -0.0013591228
0.07 -0.0062162131 -0.0015188986
-0.07 -0.0050465004 -0.0015236717
0.018649934 -0.0077030449 -0.0097213257
0.07 -0.0054439493 -0.0014124885
0.070000008 -0.0056488658 -0.0014155889
0.031588316 0.014614169 -0.031683877
0.02176778 -0.00072251202 -0.01220949
0.032749023 0.0079128221 -0.01052317
-0.07 -0.0037794008 -0.0017430708
0.025162976 -0.0082921237 -0.0077584512
0.07 -0.0034626098 -0.0018742634
-0.018909743 0.0039858464 -0.014337188
0.026400059 0.0062043746 -0.0043885019
0.046767548 0.0045689121 -0.0089344895
0.04205611 0.023297194 -0.016081767
-0.016746219 0.0081259217 -0.017715404
0.045000002 -0.0015651205 -0.0014755335
0.070000008 -0.001513446 -0.0015999393
-0.07 -0.00021048961 -0.0016839355
0.036460429 0.00182021 -0.011715963
-0.020544283 0.0060383673 -0.034405716
-0.07 0.0004757001 -0.0014587566
0.045000002 0.00023798128 -0.0012848359
0.07 0.000715859 -0.0018610256
-0.07 0.0010604201 -0.0014972007
0.046802066 -0.0016264014 -0.0052305833
-0.070000008 0.002730425 -0.0015721272
0.006715877 0.011134001 -0.013639212
0.069999993 0.002702154 -0.0016446249
-0.014083381 -0.011729931 -0.017478511
0.036566846 0.0049163387 -0.0094448514
0.069999993 0.0037530265 -0.0017474822
-0.070000008 0.0042800196 -0.0014667623
0.039672561 0.0062215785 -0.0056978548
0.070000008 0.0041625607 -0.0016907509
-0.07 0.0052389437 -0.0012321969
0.045000002 0.0053585405 -0.0014742371
0.070000008 0.0056776172 -0.0012698777
0.048548937 -0.0088143721 -0.028125595
0.045000002 0.006636613 -0.0016016332
0.07 0.0068008928 -0.0015353942
0.044986088 0.0017640636 -0.0069704028
0.019800197 -0.0085414257 -0.013020176
0.045000002 0.0072411364 -0.014345812
0.07 0.0089987116 -0.0019765524
-0.07 0.008575893 -0.0050137034
0.031865612 0.013419667 -0.010617489
0.07 0.0098029952 -0.0017993189
-0.014002567 -0.0081939055 -0.017857209
0.030087925 0.0040165819 -0.014440226
0.046666667 0.0090608811 -0.0021668489
-0.07 0.0117508 -0.0012872443
0.045000002 0.011522718 -0.0016343032
-3.7252903e-09 0.010996772 -0.016746394
0.070000008 0.011364176 -0.0019707987
-0.07 0.012948185 -0.0010325229
0.045000002 0.012352729 -0.0014744671
0.069999993 0.012057774 -0.0019659763
-0.07 0.013146584 -0.0018239459
0.023622077 0.0080480278 -0.0096790753
0.07 0.01369636 -0.0014388291
-0.027455172 0.0039640777 -0.0089906156
0.045000002 0.01424076 -0.0014850441
0.038216241 0.0058567626 -0.012240835
0.070000008 0.015380023 -0.0013556419
-0.07 0.016243126 -0.0013252455
0.045000002 0.016370051 -0.0014380151
0.07 0.016168442 -0.001601533
0.045000002 0.017431838 -0.0014288636
0.070000008 0.017608313 -0.0012416163
-0.07 0.018158931 -0.0019652117
0.0075275498 0.01965411 -0.011426634
0.070000008 0.018841907 -0.001492191
0.0011506509 -0.0078656627 -0.022842698
0.046460953 0.013587981 -0.0061862171
-0.063638493 0.015288723 -0.0099224159
0.037360188 0.021297976 -0.0050950292
0.07 0.020236593 -0.0016506519
-0.070000008 0.021338597 -0.0014290183
0.028571431 0.01702805 -0.0031583838
0.07 0.021487743 -0.0014802951
0.070000008 0.02145993 -0.0014407407
-0.070000008 0.022520488 -0.0013464391
0.023554862 0.0087617002 -0.010804784
0.03901919 0.012857383 -0.012482493
-0.07 0.023658752 -0.0019260217
0.030479655 0.017269632 -0.011682005
0.070000008 0.023567084 -0.0013081901
-0.069999993 0.024501026 -0.0015398716
0.021662403 0.0080766408 -0.017521583
0.032584615 0.023566362 -0.010334598
-0.07 0.025512483 -0.0012679505
0.045000002 0.025490513 -0.0017861294
-0.07 0.026340533 -0.0016467259
0.045000002 0.02646609 -0.0016648745
0.069999993 0.026560087 -0.0017116278
-0.070000008 0.027431024 -0.0016136722
0.045416139 0.019101627 -0.0042812731
0.045000002 0.028347723 -0.019616771
-0.07 0.028761055 -0.0011623662
0.037232462 0.019652253 -0.0037542253
0.07 0.028642312 -0.0014762977
-0.016341813 0.02375569 -0.0084401742
0.026143337 0.022049941 -0.0079157548
0.046738338 0.029495345 -0.0012171934
0.04726563 0.029462582 -0.0015504919
0.048005924 0.022428084 -0.0063261986
0.049894698 0.029442929 -0.0017503927
0.05056553 0.02948093 -0.0013638281
0.045321811 0.023502853 -0.0084660742
0.05204834 0.029470555 -0.0014693685
0.053770509 0.029483452 -0.0013381516
0.034613833 0.023927435 -0.0070459316
0.055324864 0.029515557 -0.0010115789
0.031323843 0.029047422 -0.0078849159
0.057370692 0.029498858 -0.0011814678
0.058780473 0.029497186 -0.0011984776
0.060771815 0.029454349 -0.0016342269
0.0643382 0.027380621 -0.0058301832
0.0034711398 -0.0008936841 -0.0087523144
0.040129252 0.022846408 -0.008770139
0.064388633 0.029471722 -0.0014574958
0.065642215 0.029485151 -0.0013208969
0.066272438 0.029461723 -0.0015592529
0.067397028 0.029441938 -0.0017604778
0.062092386 0.028827708 -0.0045223455
0.06987685 0.029468939 -0.0014858091
-0.070000008 0.030519849 -0.0013739079
0.044999998 0.030683359 -0.0016573255
0.045000002 0.030302517 -0.0011556819
-0.045562305 0.028182298 -0.0055575254
0.045000002 0.0314826 -0.0015263737
-0.061263658 0.032414299 -0.0035181746
0.045000002 0.032426279 -0.0013740323
-0.012111688 0.018355321 -0.0029423481
0.045000002 0.033988688 -0.0018189171
-0.069785289 0.034656804 -0.0013811602
-0.055555969 0.013944654 -0.0078296941
-0.067423508 0.034877397 -0.0012457322
-0.045884632 0.010385333 -0.013704683
-0.065675706 0.034816686 -0.0018625648
-0.009629894 0.010189515 -0.0035313999
-0.062109001 0.034875847 -0.0012614668
-0.061416306 0.034863494 -0.0013870045
-0.02189767 0.024821414 -0.010594452
-0.059125036 0.034838799 -0.0016379165
-0.05826306 0.034881122 -0.0012078952
-0.07 -0.012663422 -0.029573835
-0.037600189 0.024299953 -0.0095806001
-0.055171456 0.034884311 -0.0011754343
-0.054988991 0.034863472 -0.0013872355
-0.053485475 0.034878965 -0.0012298013
-0.039358158 0.034714989 -0.0028959033
-0.039283797 0.0014419761 -0.0070631332
-0.050350711 0.034858901 -0.0014336526
-0.049350448 0.034834459 -0.0016819845
-0.046351559 0.034867965 -0.0013415456
-0.022836996 0.024893107 -0.0027820363
-0.044113837 0.034867175 -0.0013496096
-0.04349592 0.034851205 -0.0015118888
-0.042259097 0.034840342 -0.0016222389
-0.041722994 0.034843743 -0.0015876831
-0.04050009 0.034831289 -0.0017142207
-0.039458852 0.034875832 -0.0012616683
-0.028305402 0.013503078 -0.0073295999
-0.036601223 0.034874335 -0.0012768488
-0.043850373 0.031794075 -0.0077797221
-0.027127568 0.0032003326 -0.011147835
-0.033850886 0.034822267 -0.0018058908
-0.010796087 0.016149092 -0.0094725285
-0.03146809 0.034861561 -0.0014066377
-0.030497111 0.0348479 -0.0015454532
-0.029024554 0.034872264 -0.0012979105
-0.028865231 0.034858175 -0.0014410466
-0.01121657 0.011718649 -0.0020312776
-0.025513705 0.034877218 -0.0012475278
-0.024257125 0.034875929 -0.0012606288
-0.023348786 0.03487619 -0.0012580033
-0.022719746 0.034852695 -0.0014967559
0.0027413666 0.03189943 -0.0056482526
-0.020552734 0.034872156 -0.0012990214
0.001039736 0.020796716 -0.0073105982
-0.018783115 0.034884408 -0.0011744611
-0.017344229 0.034886915 -0.0011490242
-0.016586108 0.034871716 -0.0013034571
-0.015527839 0.034881689 -0.0012021299
-0.0014686872 0.030486224 -0.0067270556
-0.013305545 0.034869656 -0.0013243651
-0.012118317 0.034899704 -0.0010190679
-0.011372073 0.034857638 -0.0014465151
-0.010449221 0.03483475 -0.0016790563
-0.0093279779 0.034852285 -0.0015008855
-0.00037371629 0.023816919 -0.0070629269
-0.0073571214 0.034862183 -0.0014003327
0.066535532 -0.0042300075 -0.029199174
-0.0053005349 0.03486279 -0.0013941618
0.00072605256 -0.016259991 -0.029703788
-0.0029079076 0.034854546 -0.0014779101
-0.018547131 0.02578225 -0.0071686907
-0.0005293414 0.03487467 -0.0012734596
-0.011184821 0.0233905 -0.0076213386
0.0022504777 0.034839563 -0.0016301472
0.0039994828 0.034883372 -0.0011849998
0.025076985 0.031400837 -0.0054412936
0.0054270336 0.034853917 -0.0014842912
0.018121039 0.023575695 -0.005788737
0.05967183 -0.026712921 -0.0125461
0.022998165 0.019978262 -0.0053876685
-0.0072368807 0.020060841 -0.0073918672
0.011631448 0.034853749 -0.0014860209
0.01217345 0.034813747 -0.0018924675
0.013003634 0.034817863 -0.001850656
0.014229594 0.034874283 -0.0012773722
-0.054583773 0.0018629401 -0.034816653
0.017440557 0.034827657 -0.0017511416
0.019451018 0.034827635 -0.0017513516
0.04569678 0.029280931 -0.0050904504
0.022008114 0.034803212 -0.0019995198
0.023570767 0.034883037 -0.001188416
0.0069361725 0.020648498 -0.018042864
0.022310931 0.02115527 -0.0053609605
0.012456852 0.02361571 -0.0098877065
0.018256558 0.018229397 -0.016296253
0.016034272 0.031918742 -0.0046570878
0.029515019 0.034835838 -0.0016679843
0.030465508 0.034883019 -0.0011886198
0.048819952 0.002716532 -0.0021320661
-0.017143898 0.015197961 -0.030151058
-0.01088124 0.033298358 -0.0081447782
-0.061091609 0.010058001 -0.033348076
0.035249665 0.034839176 -0.0016341049
0.036364812 0.034843437 -0.0015907951
0.037811257 0.034867618 -0.0013450966
0.038959768 0.034817029 -0.0018591379
0.041539446 0.02975972 -0.0037162283
0.043125905 0.032966226 -0.0042416062
0.015682517 0.0088376589 -0.0095306756
0.042380027 0.034851808 -0.00150576
0.043622293 0.034891684 -0.0011005607
0.045000002 -0.00019300875 -0.020467578
0.038671378 0.02710611 -0.0068032607
0.013554431 0.016616177 -0.029545164
-0.037040491 -0.0061806552 -0.013599654
-0.067592956 -0.034955662 -0.00045052171
-0.065539598 -0.034948118 -0.00052718451
-0.064253889 -0.034925982 -0.0007520896
-0.053765215 -0.020584822 -0.014141426
-0.066438861 -0.020417942 -0.0097606573
-0.037882157 -0.022175685 -0.012049662
-0.02591157 -0.011263264 -0.025374401
-0.059617281 -0.034965217 -0.00035342784
-0.022518188 -0.013862382 -0.014726437
-0.05655662 -0.034984294 -0.00015960311
-0.047481816 -0.013924895 -0.0074247904
-0.054183204 -0.03492552 -0.00075676315
-0.05334812 -0.034999818 -1.8485055e-06
-0.031347089 -0.03146144 -0.0078944433
-0.051899109 -0.03496515 -0.00035409461
-0.049602073 -0.03493705 -0.00063959713
-0.048069492 -0.034986347 -0.00013871645
-0.017632544 -0.017233189 -0.005829799
-0.04629083 -0.03495403 -0.00046708767
-0.04610632 -0.027929895 -0.0029328712
-0.033009585 -0.027572468 -0.0090775872
-0.042455256 -0.03491883 -0.00082474109
-0.04174849 -0.034921609 -0.00079651113
-0.040258259 -0.034983527 -0.00016736829
-0.038455904 -0.034989864 -0.00010300554
-0.037236363 -0.034927461 -0.00073704903
-0.03642603 -0.034988489 -0.00011695073
-0.035307925 -0.027795456 -0.0048820907
-0.039795786 -0.022320133 -0.011875022
-0.033484656 -0.03493914 -0.00061837799
-0.032526653 -0.034941725 -0.00059211167
-0.031992249 -0.034987878 -0.00012316411
-0.03035474 -0.034966253 -0.00034288433
-0.036001191 -0.011969486 -0.0027804612
-0.028736167 -0.034949221 -0.00051595038
-0.027538119 -0.034933172 -0.00067900261
-0.040879279 -0.030313067 -0.0042789769
-0.025480378 -0.034935582 -0.00065454363
-0.02467688 -0.034965433 -0.00035123722
-0.037707966 -0.028420787 -0.010827883
-0.022667645 -0.034962893 -0.00037704824
0.00060017966 -0.014557964 -0.006593877
-0.020487059 -0.034939177 -0.00061797671
-0.019561658 -0.034951553 -0.00049226946
-0.0066976976 -0.022158805 -0.0078790961
-0.017264597 -0.03498362 -0.00016644729
-0.070000008 -0.0057838149 -0.015584596
1.2887176e-05 -0.02192251 -0.0079395957
-0.019747429 -0.014257791 -0.01751156
0.0084318435 -0.027704325 -0.0044455216
-0.011903232 -0.0349258 -0.00075391878
-0.010612727 -0.034954708 -0.00046017114
0.020862609 -0.0024042539 -0.023691319
-0.0086170677 -0.034980237 -0.00020077161
-0.007513023 -0.034965545 -0.00035012848
-0.038065504 -0.021526644 -0.016226407
0.0020552736 -0.023386285 -0.012130549
